# 3D point list with one line of data per point:
#   POINT3D_ID, X, Y, Z, R, G, B, ERROR, TRACK[] as (IMAGE_ID, POINT2D_IDX)
# Number of points: 281, mean track length: 8.9475369203759172
13580 1.4089723329939197 1.8362710336919654 4.4902488101910381 50 49 59 0.010448245841934833 21 1519 25 2060
13582 1.7091403295297407 1.8369490820836933 4.5094675439476228 52 51 62 0.034617326637503054 21 1667 25 2114
13583 2.7024116885929677 1.7267393594753766 4.6323241316692432 62 54 56 0.048613739364169649 32 1431 25 2123
13584 0.076514132495218448 1.7195147189085973 4.6551160853676903 23 55 86 0.20058640014928786 11 3026 19 1922 25 2127
13586 -1.1528354412087636 2.6002397279189626 3.5526053716659951 15 16 15 0.066217343079141691 7 2206 25 2144
13587 2.6477523969852816 0.65743597683776345 5.9573443725470892 67 66 64 0.13833186930091668 19 1831 25 2247
13589 1.0284380693881356 1.5228209620628146 4.8923398702014644 151 158 166 0.2468273564699455 21 2090 25 2284 42 2919
13590 0.38877697661578925 0.51676921373871976 4.8447638778206823 63 50 49 0.31209612751908422 8 3203 25 2312
13591 1.6285604070679656 0.89083473732353524 5.6508447403847564 87 86 93 0.27199529900713243 19 1234 21 2309 25 2313
13593 -0.15013212166845144 0.34674570296434004 5.0020742465893226 159 121 117 0.15796722906834959 21 2091 25 2324
13594 0.23511775992282874 2.3370769020377562 3.4662798018171626 94 88 83 0.10316766728615671 18 2153 21 2749 25 2350
13595 -0.77343183650047342 1.4020613671558211 3.779080292359656 0 0 0 0.038009117270499521 5 1331 21 2568
13596 -0.14499920619674048 1.8542750562931154 4.4013732422848646 111 123 125 1.3778423113408562 18 2395 33 1850 25 2357
13597 -1.272567662899295 1.3093562391345457 3.8641164218401407 60 51 41 0.025606661577536972 21 2125 25 2384
13598 -1.356634067302583 1.1697322571825937 4.0145885854809658 143 104 102 0.66734585327187501 21 1473 25 2392 40 3169
13599 0.25523131154543788 1.5227414129705754 4.888286603043281 114 120 120 0.17637746477034541 21 1968 25 2403
13601 -0.56021970630688955 1.2360689717016402 3.8612169464039812 0 0 0 2.5610828792795006 5 1820 23 2515
13602 0.53025384225577954 1.8956764254206522 3.7897936587577123 92 106 115 2.1887183767864147 21 637 25 2419
13603 -0.69858857657089413 0.95092279496888754 4.2976004631583962 134 35 47 1.1233683762766293 11 2748 19 1278 25 2420
13605 -0.24323298624621026 2.5759853658233522 3.5758507910987389 0 53 49 0.076712598346003996 28 2409 25 2525
13606 -1.5712496583418269 1.2586883843528005 3.899432736239516 150 104 104 0.21650734758190535 12 2752 21 2158 25 2531
13608 -0.55032770773530004 2.7547081267069169 3.370878023862371 9 78 40 0.14618020539386858 19 2223 25 2555
13609 -0.61508014588642312 2.671172105716054 3.7428717884200799 0 0 0 2.8393476689854094 19 1156 21 2627
13612 4.0157829153318714 2.5010831185115525 3.6357983244476606 67 67 65 0.25084818163105627 17 1213 25 2586
13614 2.4469865701778537 1.3154614511549128 4.8487124918956832 65 64 66 0.69499658202972769 3 1268 25 2589
13615 3.5511657793597537 2.2306835115155481 3.952946709483669 67 62 62 0.043597025828930547 21 2016 25 2595
13616 1.862486217267902 0.47572634862987301 5.893300217504625 69 65 69 1.4395608639228201 3 1879 25 2611
13617 3.2646260591266234 1.5365704235333735 4.8584599279864848 68 63 66 0.095374972155106361 32 1434 25 2617 27 2239
13618 2.2365280439062971 1.6347197184417264 4.7081223731197381 51 52 53 0.033781738953245516 21 2228 25 2666
13619 1.3429511249481825 1.2934361279516104 5.1972475087915297 73 61 82 0.23204907589589832 37 2197 25 2680
13620 5.0128213187925974 2.1043057708854276 4.0137452194805769 75 77 82 0.039276957009691277 18 2460 40 3555
13621 5.0482155803656559 2.1108989920349259 4.0305510103166675 75 77 82 0.26333307604155748 18 2037 40 4152 17 1795
13623 0.54850545257488958 1.9095012880759048 4.4054351906956688 59 76 93 0.45686984466595781 11 2206 25 2803 42 7191
13624 -0.10092355468351842 0.67723222642470504 4.6642058834618894 45 50 46 0.76096521039233178 3 2873 14 2970 10 2663 1 2490 21 1138 6 882 25 2103 42 4591
13625 -0.35149581424176984 2.2048657069402577 4.0471051474257598 5 45 48 1.699559579541196 28 2207 5 2214 21 2170 25 2377 7 2371 28 2897 6 2529 19 2524 5 2663 4 2333 21 2517 42 8619
13626 -0.21553402116222628 2.7354473686287233 3.0280624674115644 140 147 152 1.7285417916491383 17 209 38 175 25 258 21 467 39 252 22 1666
13627 0.16718591584463552 2.5067779282462146 3.1595272021262732 172 155 151 1.8488140807490718 8 1513 18 1524 30 691 6 1876 12 1566 11 2248 5 692 7 574 4 891 25 1006 25 1960 36 1959 20 1857 18 2145 36 482 20 432 23 677 34 374 29 565 26 494 33 644 33 1920 10 852 35 461 17 651 39 621 6 1967 12 2586 21 2551 21 2191 40 2021
13628 1.5561919972347464 1.7477781428163532 4.6105509138285781 31 38 43 0.18721630280445409 31 2639 34 2124 20 2010 37 1929 27 2401 17 1831 39 1943 18 2094 25 1672 32 1558 3 1910 7 831 31 2638 30 909 28 1464 19 1374 21 1513 40 3720
13629 0.11634221169565881 0.53929691060121876 4.8101602910897689 23 21 22 0.61813699423686064 16 2399 39 1377 17 1814 18 1489 25 1110 42 2755
13630 0.026948893578594927 1.6888182877758771 4.6875715627173902 62 51 72 0.73877888041636808 8 660 11 473 12 538 6 452 21 616 25 555 26 1714 34 2034 42 2533
13631 -1.1279758741570911 2.5392079703240653 3.6354337085581165 6 33 26 2.4393190594142049 7 2636 28 2694 21 2584 25 1922 7 2246 28 1348
13632 0.48239686381130992 1.7520601211038325 4.6302378212496338 94 102 50 1.0467611129486949 11 2881 7 2705 30 2955 28 2616 12 2865 4 2590 25 2650 28 1560 19 1936
13633 0.31450029321247591 2.4690668628829013 3.4240500168809036 31 65 67 0.14486666801329673 7 825 30 870 5 805 25 1029 26 2254 20 1584 35 1628 17 1472 39 1616 18 885 21 1036
13634 -0.52766834677270247 0.78255265467680202 4.5132696214582699 130 140 137 1.002347177618407 26 373 38 219 23 309 20 152 17 136 31 355 3 447 39 198 18 129 25 76 9 239 11 58 8 92 21 31 42 466 40 605
13635 2.16453971832909 2.6316670874000403 3.5075350535613228 49 48 48 0.10327025895366176 26 1606 20 1837 17 1714 39 1491 18 1861 25 2091 28 1612 19 1608 21 2057
13636 -0.25333198673057994 1.9289552424513603 4.362217758991318 5 70 32 0.50333157419973684 17 1015 39 611 18 840 25 547 12 932 19 444 21 444 42 2560
13637 0.14044516583269848 0.66203906217307185 4.6772618306791935 46 47 51 1.735112778338161 8 2812 10 3023 28 1565 25 2293 3 2810 15 1360 35 1975 17 2205
13638 0.08754703441612266 2.4364051930111748 3.7445479026239181 24 14 12 1.3807030344487934 17 1919 35 767 28 915 39 1610 12 1526 19 958 5 2329 4 1231 42 2660 40 5146
13639 -0.50283891111048395 2.6766363761211998 3.408827878248454 92 143 116 1.9561645264444278 7 77 30 132 28 128 21 105 19 107 25 79 37 33 32 1937 33 42 22 2030 17 62 39 73
13640 -0.35433300277650276 2.7829461387878824 3.2762861221169639 109 112 115 1.8979746113228522 35 664 39 594 18 688 25 422 14 2637 32 1817 34 930 3 2091 1 2688 8 431 21 421 40 1992
13641 0.7823269169806637 2.1586022777310836 3.8057225802602233 48 60 67 0.10570506448484387 20 2058 17 1954 39 2052 18 1880 25 1884 19 1119 21 1261
13642 -0.41894128340292891 2.8027743114195771 3.0349851302770299 62 65 64 2.3621331755307349 19 931 39 2018 7 1941 30 1543 19 933 28 1406 21 929 25 2799 40 2846
13643 1.2970702715854636 2.4680010840126543 3.7140113754290844 36 41 46 0.21760916621389248 7 1078 30 1195 4 1213 6 1088 8 2051 21 1139 25 1132 30 890 5 825 4 1042 6 1143 12 984 31 1797 36 1798 23 1398 26 1855 34 1575 29 1605 33 2005 27 1318 32 1855 20 1482 22 1637 13 2577 16 2736 14 2506 10 1289 2 2251 3 2250 1 2109 15 1481 9 1515 36 1991 23 1518 26 1748 34 1457 20 1626 27 1375 29 1452 33 1926 16 2393 14 1983 14 1984 10 1469 13 1853 2 1741 1 1828 31 1741 33 2006 9 1364 8 1878 24 1316 24 1637 35 1610 38 1408 38 1595 17 1388 17 1389 39 1465 39 1800 18 1561 18 1890 7 982 28 2421 19 1392 21 1337 25 1265 42 6346 42 7165 40 4081 40 4082
13644 -1.0931956242653356 1.6202669740328177 3.4737844666063888 158 171 175 1.2960733062568039 28 637 19 315 25 399 23 1623 26 2454 31 2210 11 1924 38 308 23 472 36 388 34 415 20 308 37 421 29 504 26 503 33 388 32 267 22 278 24 273 35 280 17 285 27 470 39 170 18 142 6 2135 21 520 4 1856
13645 -0.6430298010751998 1.31032239673878 3.8974467068900576 82 41 52 0.98528667386172786 34 1848 17 1626 18 1063 30 609 25 786 19 443 21 627
13646 0.63009373734069218 1.6507120692547355 4.7233234373301185 42 46 48 0.18572040528209471 4 609 21 1258 6 843 12 806 19 1113 7 1154 11 1086 30 931 28 1100 5 602 25 1202
13647 -1.3351442549820969 2.4462793947334553 3.7520484096574593 11 53 26 2.0834073907417956 7 1355 30 1065 23 2283 24 2075 35 1991 17 1584 39 1671 18 1773 35 1948 7 1349 30 1604 16 2670 15 1386 5 2065 12 1369 4 700 25 1441 25 1442
13648 0.34416365335934845 1.9177561775128853 4.3973816765186831 81 84 90 0.28461779482808613 4 1069 21 2029 7 1160 30 935 11 1860 39 2047 18 2186 28 1185 15 2965 17 1955 8 2626 9 2061 6 1523 12 1503 5 1099 19 1327 25 1820
13649 1.1648574225801807 1.39332936367018 5.0526774419193128 43 37 56 1.2180755811110662 13 2603 10 1774 25 2301 32 2104 24 2000
13650 -1.2169802016447986 1.2628690560726754 3.9074015523219821 49 37 25 0.47956335063236122 18 2223 19 1537 11 2799 21 1075 25 1832
13651 -1.0909426378959421 1.6334916421942458 3.4788905422557534 140 150 157 0.82264870012280589 28 824 19 318 25 402 4 1913 6 1986 21 582 40 5376
13652 1.1556541979019983 1.3537576889524772 5.1172312052484781 67 36 49 1.0850683913270929 9 167 7 122 30 223 28 194 19 274 21 320 25 534 34 314 33 383 40 1025
13653 -0.40637488919731118 2.405262345476213 3.8030982429780269 0 43 44 1.7221363893840484 11 2785 6 2429 4 1812 25 1743 25 2816 28 2452 38 1863 19 2188
13654 1.3335266048539389 1.5046938914268926 4.8879730887442774 78 24 59 1.2270152202929643 7 441 30 628 28 610 19 571 21 658 25 1036 7 1871 11 1137 30 1339 5 1388 6 1276 19 2302 11 2570 4 1135 42 2920
13655 1.6551642798534822 0.8994265621707932 5.6270449989092697 87 89 95 0.14057746638368768 1 2090 18 1984 25 2316 19 1731 21 2347
13656 -1.0280705851662018 1.4419097206567992 3.7045301731352347 159 129 118 0.41785178962710778 7 44 5 66 25 91 20 306 26 344 34 311 15 528 35 226 11 230 31 506 38 214 17 141 39 234 18 176 28 82 12 220 19 79 21 55 4 79 42 1613 40 614
13657 -0.56959858091944071 2.7798686440337503 3.3376279461127938 11 89 43 0.31831979359543328 7 1988 30 1458 28 1395 5 1416 21 1369 25 1339 30 1627 28 1576 21 1484
13658 -0.75328223581451037 3.0971351646724843 2.9600271284847532 132 139 139 1.446226982017057 5 1732 11 402 4 1708 21 919 25 889 33 318 13 215 16 99 14 113 10 324 2 268 1 284 15 435 8 97 40 4775
13659 -0.96871450424225347 0.95991888000785364 4.3107537376483709 80 30 40 2.3028679390118851 4 1309 19 1019 18 2446 28 1017 19 1158 25 1821
13660 0.48033874949145167 3.5583304848040687 2.3689401831995376 49 43 56 0.8651459846056937 21 2557 35 2006 20 711 7 1269 15 2004 30 1206 31 1255 23 1132 26 1288 36 1134 34 1055 37 1048 29 1037 33 998 27 1040 32 1199 22 740 17 554 28 1138 12 1798 19 885 40 3457
13661 1.5753574493604277 2.6326289504258589 3.488564253287517 50 49 56 0.072140336237617925 21 1350 25 1255
13662 2.4908847968490213 3.1725696053403656 2.852944636126471 53 43 46 0.24370946163979876 21 1464 25 1783 40 4652
13663 2.203412641948975 2.0591758836613456 2.3872610154946918 74 70 73 0.83716160061662448 39 2324 25 2136
13664 -1.1491744302337397 2.5001662553343404 3.682984695938778 0 73 59 0.83479442587250785 31 2692 23 2384 20 1737 16 2341 15 2482 35 1571 11 2458 38 822 17 1135 39 1251 18 1274 7 2546 28 2249 12 2504 31 2684 23 2279 20 1569 15 2089 8 2875 24 2060 35 1483 11 2246 38 1113 17 1039 39 1105 18 1170 7 1237 30 781 28 745 6 2056 12 2211 4 1274 25 728 25 857 40 2978 40 3484
13665 2.005057764310354 2.3704597443593265 3.8300178316093509 27 31 41 0.20043619751366201 31 1367 36 964 23 1044 26 1386 34 981 37 766 29 1277 33 877 27 949 32 541 22 976 27 950 32 542 13 940 13 950 16 1349 14 1049 14 1057 16 1198 10 594 10 608 2 809 2 852 1 788 1 789 8 939 24 555 30 597 7 585 5 645 4 472 21 732 25 909 20 1088 35 1195 38 913 17 939 39 922 18 958 7 705 30 581 28 567 13 1012 16 1188 14 1119 10 763 2 908 31 1115 36 881 23 1102 26 959 34 1015 37 975 29 1042 33 985 27 757 32 650 22 708 3 870 1 787 1 869 14 1056 15 851 9 567 36 995 23 1101 26 1387 34 1016 29 1251 33 986 24 647 35 1196 20 1032 38 1039 17 1164 39 1233 18 1301 7 744 30 598 7 672 28 572 19 782 19 1073 5 646 5 647 5 690 34 1017 20 1089 35 870 38 1040 17 1165 6 574 4 462 4 481 4 509 21 733 21 980 25 915 42 1869 40 2540 40 3360 40 3372 40 3377 25 917
13666 0.51779914512658365 1.7186129749744921 4.6431374323205947 119 134 133 0.45045102288569722 29 1846 32 2109 13 3154 16 3314 10 2072 3 2577 15 2117 9 2104 8 2429 11 1501 18 2491 7 1121 30 934 28 1204 6 1175 12 1218 19 1344 5 1119 4 615 21 2383 25 1775 28 2311 19 2126 42 4625
13667 1.6897063294970158 0.87497098873378665 5.6900071134311627 111 116 119 1.6090334339848547 19 1239 21 2236 14 1053 16 1029 10 892 2 885 1 1281 8 950 22 2054 32 2242 19 817 41 3296 42 1211 25 2320
13669 0.75320988182687909 3.1935777539463928 2.8145104109181216 50 47 56 0.15009692455760223 19 738 21 767 31 1134 29 1163 27 1204 37 1060 29 1162 33 1198 13 2347 14 2306 31 1135 37 1059 29 1161 16 2617 31 1133 27 1199 13 2182 14 2265 16 2363 10 2493 31 992 36 1674 23 801 26 1072 34 785 37 780 33 1554 32 1011 32 1262 29 975 22 1747 16 2364 2 1750 2 2355 3 1218 1 1885 1 1892 15 2485 9 2346 8 1987 24 1042 24 1043 24 1109 20 860 32 1260 35 949 11 1423 11 1804 38 856 38 1127 17 802 39 855 39 1148 18 894 18 1209 7 955 8 1908 30 1203 28 1117 6 1628 6 1909 12 1420 5 991 4 1277 25 685 25 825 4 1250
13670 1.1737510355823539 1.4486125557206369 4.9966339026667903 109 114 119 1.0342388354373648 31 2294 23 2130 26 2246 20 1990 37 1629 31 865 36 1462 23 1355 26 1997 34 1720 29 839 33 2052 33 1617 27 928 27 2113 32 634 22 897 13 1051 16 966 14 1151 10 591 2 676 10 664 3 640 1 904 15 656 9 595 8 692 24 908 35 1307 11 313 38 1365 17 1209 39 1011 39 1739 18 930 7 376 30 501 28 583 6 378 19 573 5 378 4 354 21 701 25 1071 7 500 30 511 28 661 6 265 42 1674 40 3888
13671 -0.81226811678445254 2.9274341244854876 3.1450461567087129 118 31 13 0.40750341652352384 6 651 7 364 5 465 4 678 27 2210 24 629 7 495 6 695 5 520 4 625
13672 1.3008320513981113 1.6333348057457966 4.7556785809785147 72 72 77 2.028597371972904 11 2554 30 2550 28 2586 4 2413 15 3267 8 2932 19 2334 5 2348 25 2282 11 1985 42 8054
13673 1.8820478532387055 2.8150346082213398 3.2774254323892293 46 43 49 0.16788403278059955 7 1775 30 1806 28 1893 8 2163 31 1521 23 1383 26 1712 34 1417 20 1496 37 1374 29 1386 33 1372 27 1270 34 1489 20 1497 32 1192 22 1250 13 1223 16 1652 14 1339 10 1648 2 1536 3 1179 31 2034 23 1695 26 1776 33 1466 27 1770 22 1691 37 1553 29 1498 32 1023 1 1438 15 1609 9 1358 24 1091 24 1156 35 1497 38 1609 17 1385 39 1472 39 1769 38 1403 18 1321 18 1357 6 1014 11 1041 5 1290 4 887 21 1186 21 1516 25 1241 42 4533 40 3845
13674 0.042032110145717727 3.2953891592422853 2.6913800058988482 54 48 58 0.29845639760837006 39 558 18 635 13 2038 14 2106 10 2087 2 1817 36 1170 23 1189 26 1284 33 1024 13 2384 14 2384 31 1152 36 1142 26 1219 34 1120 20 1178 27 1769 31 1038 36 816 23 1251 26 929 34 1081 20 1128 20 1129 37 1127 29 983 33 783 32 1037 22 1677 16 2125 16 2679 10 2088 10 2195 2 2115 23 1181 3 1923 3 1924 3 2274 2 1940 1 1705 1 1706 1 1957 15 2488 9 2030 9 2399 16 2126 8 1865 8 2041 24 1160 35 772 35 774 35 776 38 630 17 703 39 793 18 636 18 755 30 1157 28 852 12 1602 19 867 19 868 21 764 25 766 25 767 25 895 41 2385 40 2925 40 3455
13675 -0.97512462519187415 2.7532191846223375 3.3436306745814859 20 16 18 1.2477850469778267 31 333 23 278 37 377 29 337 27 472 32 339 22 476 15 1102 9 1267 24 316 11 602 7 177 30 175 28 171 6 566 12 564 5 213 4 234 21 114 31 334 27 399 32 394 22 403 3 1096 15 1101 9 1258 8 532 10 1256 2 1015 3 1559 1 952 31 376 36 497 23 328 26 561 34 359 20 343 37 484 29 236 33 348 27 398 32 393 22 393 16 1177 14 1106 15 961 9 1266 24 285 24 286 35 422 11 601 11 789 38 233 17 329 39 271 18 327 30 186 7 178 28 162 6 475 7 179 12 476 12 565 19 138 5 176 4 325 21 99 25 235 41 6665 41 595 42 3039 42 3297 40 1521 40 1545
13676 1.5690726521489655 2.1057371779454637 4.1642780498203971 40 39 39 0.14726584832604198 11 968 6 927 12 784 31 2357 23 2215 26 2172 36 1859 20 2120 37 1886 29 2077 33 1875 27 2250 22 2279 16 1720 14 1918 1 1575 9 1547 24 1473 35 1880 38 1965 39 1478 30 1191 28 1870 36 2124 23 2347 26 2468 20 2347 32 1782 31 2516 23 2346 26 2469 33 1974 37 2107 29 1902 27 2187 22 2171 13 2420 16 1466 14 2434 10 1338 2 2214 3 1210 1 2147 15 1818 9 1280 24 1679 12 785 5 846 4 804 8 1478 21 1188 25 2097 41 6554 42 4385 42 5461
13677 -0.23702058714081004 3.4800865655555508 2.4638824304061511 50 41 48 0.25398232494781325 30 1151 19 685 31 1243 14 2276 34 881 16 2185 10 2319 13 2248 14 2044 2 1961 3 1867 3 1868 1 1984 9 1809 16 2094 35 720 31 833 36 937 23 1211 26 938 34 1100 37 1105 29 970 33 1084 27 1095 32 1050 22 1727 13 2069 14 2275 10 2089 2 2084 3 2066 1 1721 15 1990 8 2039 24 1122 20 695 11 2109 38 662 39 376 39 406 18 431 7 1011 30 848 19 606 5 1030 4 1670 21 518 25 460 42 8149
13678 0.46742758202316859 3.1988593251138493 2.8104947709938179 47 44 53 0.17395443645409184 7 1061 19 746 21 744 26 1324 31 1136 23 1076 37 1061 33 1205 27 1263 13 2164 13 2165 16 2634 14 2409 10 1880 10 1883 14 2258 2 1764 31 1137 36 1151 23 1077 26 1325 34 1000 33 1204 29 1105 27 1773 32 1047 31 993 36 865 23 840 26 1453 34 819 20 1207 37 793 33 1552 27 1264 22 1731 16 2110 10 2482 2 1754 2 2311 3 1945 3 1996 3 2319 1 1862 1 1863 1 1997 15 2474 9 1964 9 2320 8 1925 8 1926 8 1955 24 1161 35 818 35 1115 20 1163 11 1428 38 821 38 1114 17 1035 17 1128 39 588 39 710 18 677 18 678 7 997 30 1126 28 1080 6 1733 19 890 5 928 18 679 4 1249 25 747 41 4737 42 4974 42 5019
13679 -0.99061189971152741 2.8813743572542725 3.1824987699565206 39 55 56 1.3960529728755759 23 2391 6 1958 31 2422 36 2053 23 2230 20 1514 29 1953 33 1879 32 2181 22 2223 32 1972 24 1492 24 2029 35 1711 35 2116 11 3164 38 1528 38 1853 17 1111 39 1161 39 1649 18 1182 18 1637 7 1417 30 1003 28 1051 19 987 5 1386 4 1767
13680 1.4422797065903989 2.5549822789797503 3.6060229386683509 37 38 43 0.15553159888689985 14 1965 10 1487 1 1580 13 1778 28 1515 19 1219 39 1467 5 1005 4 1003 8 1846 7 1066 30 865 12 1094 8 1968 11 871 20 1622 29 1485 32 1828 36 1823 29 1617 22 1656 31 1782 23 1772 26 1796 36 2024 37 1467 33 1912 13 2445 16 2733 14 2566 10 1345 2 1287 3 1270 27 1703 1 2151 15 1471 9 1363 24 1621 38 1599 17 1691 39 1776 18 1891 7 956 30 1187 28 1830 6 1082 19 1378 4 815 5 922 21 1149 21 1335 25 1139 25 1259 42 5388 40 3320
13681 -1.3788112411983435 3.4982952596758921 2.4421559142881 55 47 50 0.26489332539365734 29 1187 27 952 22 1457 2 2128 3 2043 16 3527 14 3279 10 2029 31 850 36 663 23 1216 26 1316 34 727 37 1115 29 957 33 1047 27 772 32 1003 22 1672 16 3526 13 3258 14 3278 10 2084 2 2022 1 1807 1 1840 15 2947 8 2378 24 1138 11 2087 6 1843 34 567 12 2000 4 1271 8 1422 11 1992 42 3019
13682 1.1850104748133519 3.2753672665222964 2.7098255065401031 53 47 55 0.19979407062215485 13 1827 22 737 10 1347 2 1272 23 1078 37 1070 33 1278 3 1142 3 1295 13 1826 10 1454 2 1390 31 1035 36 1665 23 829 37 1120 36 1346 23 1079 26 1231 34 993 29 955 29 1147 26 1080 31 1138 34 789 20 872 37 1071 33 1277 33 1477 27 963 27 1110 32 928 32 1206 22 961 16 2641 14 2216 14 2217 13 2522 10 1486 2 1364 3 1304 1 1825 1 1826 1 2095 27 964 15 1380 15 1665 9 1494 8 1770 8 2159 24 1135 20 1138 35 932 35 1096 20 1139 38 841 38 987 38 988 17 823 39 893 39 1139 7 1771 30 1892 28 1835 19 1066 5 1725 4 1754 25 997 11 1772 6 1929 42 6645 42 8477
13683 1.5624563867184571 1.9269933615757791 4.3873674776377598 39 39 41 0.1359459020215921 13 1799 16 1732 14 1825 10 1296 2 2249 3 2258 37 2052 27 2067 32 1807 22 2186 13 2421 16 1494 14 1864 1 2150 22 2215 3 1725 15 1314 9 1550 9 1683 8 1532 8 2323 15 1785 24 1561 7 818 30 874 7 817 28 1504 28 1863 19 1229 4 654 5 804 26 2591 6 753 12 760 20 2328 35 1862 11 825 38 1784 17 1849 18 1819 7 948 26 2136 20 2329 27 2258 32 1574 31 2333 23 2365 37 1944 24 1518 30 1127 6 852 12 790 19 1434 5 1042 4 747 42 2536
13684 1.7285471592601631 2.5500468353173855 3.6101216817547965 45 42 51 0.20394441355921181 13 1931 14 1617 10 1560 31 1717 36 1270 23 1643 26 1751 34 1422 20 1575 37 1469 29 1481 33 1419 27 1462 2 1474 3 1168 13 2500 16 1638 14 1347 10 1122 31 1783 36 1555 23 1769 26 1861 37 1488 29 1622 33 1451 27 1715 32 968 22 1728 16 1740 2 1090 3 1313 1 2038 15 1517 36 1355 9 1331 8 1882 8 1883 8 1991 24 1283 24 1660 38 1355 17 1677 39 1783 7 1543 7 1544 7 1884 30 1745 30 1846 28 1689 28 1690 28 1905 6 1021 6 1091 19 1408 5 1069 5 1071 4 1004 4 1022 25 1779 25 1780 34 1320 20 1636 38 1635 17 1458 42 4713 42 5413 32 1231 40 3660 40 3661 18 1537
13685 2.1610322089853091 2.6311964571449926 3.50437270855037 47 45 49 0.15293543446622482 10 1540 3 1368 1 1370 23 1521 37 1462 27 1689 31 1841 29 1513 22 1700 15 1189 16 1472 9 1162 31 1704 26 1649 20 1539 37 1486 23 1381 29 1416 27 1248 32 1007 32 1265 13 1579 14 1702 10 1539 2 1447 3 987 1 1399 13 1646 14 1750 10 1662 15 1034 1 1371 24 739 24 1078 7 1738 21 1901 25 1673 17 1471 39 1730 42 4670
13686 1.0096610261602366 1.7222341638532657 4.6360349637543319 125 136 140 0.63473664276946673 20 2380 32 1892 22 1530 16 2504 14 2527 15 1324 9 1304 24 898 31 1350 23 2088 37 426 27 993 31 2234 36 1930 14 1947 15 1788 9 1558 16 2278 11 1076 17 1723 39 2267 18 2453 30 1520 28 1480 6 830 12 821 19 1164 5 880 4 593 21 2081 25 1666 25 1870 20 2290 22 1488 39 2227 18 2420
13687 -0.73948447288541674 1.1394529557485757 4.0727206261799296 110 29 33 0.55645665133087707 8 282 22 502 11 161 28 93 6 120 12 153 19 96 21 58 36 589 34 751 20 456 37 596 29 544 10 715 3 681 2 728 1 691 8 355 24 593 35 387 11 166 32 487 22 568 38 243 17 274 18 183 30 94 28 75 6 140 12 203 19 58 4 69 25 161 41 1629 42 882 40 565
13688 -1.1751133957541913 2.3794123660290603 3.8447939479440367 16 23 14 0.73449361468782592 31 259 36 372 23 283 26 357 20 147 37 259 29 342 33 265 27 400 32 291 22 408 16 601 13 734 14 772 10 621 2 649 1 655 24 290 35 149 11 256 38 168 17 116 39 117 18 120 12 167 25 69 25 81 21 98 20 144 18 119
13689 2.1684626785155259 2.80949758131726 3.2808518574702816 50 47 56 0.17728648355568197 23 1608 26 1791 34 1495 20 1478 22 1261 26 1767 34 1426 20 1621 31 1519 37 1373 29 1395 33 1431 27 1783 32 1171 13 1645 14 1671 15 1608 35 1490 35 1598 38 1410 38 1644 31 2035 23 1718 37 1564 29 1502 33 1472 27 1196 32 948 22 1717 1 1397 14 1744 15 1478 15 1618 9 1248 24 1167 16 1436 17 1442 17 1705 39 1453 39 1803 18 1548 18 1916 7 1741 28 1621 28 1743 19 1645 5 1051 21 1549 25 1173 19 1603 21 1173 42 4702 40 3664
13690 0.86215749989357371 1.3962033935245293 5.0580444765555823 129 140 144 2.3041440026271851 11 1665 19 2258 21 2496 8 3047 7 2323 15 2650 11 2569 30 2367 28 2496 6 1688 5 1322
13691 0.18039100660427621 1.4894171655170918 4.9355710059378683 64 81 82 0.70419074766615108 7 1379 21 606 13 786 14 883 16 871 10 675 2 652 3 667 1 848 15 559 9 397 24 683 35 542 32 668 38 470 17 460 39 506 18 486 20 636 31 695 29 765 23 608 26 710 34 523 37 954 33 915 36 570 8 430 25 312 41 1225
13692 -0.43199160777843615 0.58943649137882215 4.721728396076319 48 42 45 2.3422686142351608 34 1293 36 2082 20 954 37 1804 35 1263 23 1493 38 902 17 492 18 418 20 418 17 389 39 441 18 305 35 746 25 175 21 156 38 651 40 803
13693 1.5129124800694314 1.1855762560439871 5.3253828034224444 43 67 83 1.4085106420259248 26 873 31 961 36 1041 23 931 26 855 34 895 20 446 37 939 29 778 33 790 27 890 32 695 22 858 13 565 16 388 14 631 10 568 2 565 3 642 1 682 8 212 24 972 35 452 35 733 38 413 17 432 39 289 18 270 28 197 19 209 21 210 25 277 41 2511 42 450 40 806
13694 1.1388992703128431 1.7670261729617196 4.5937738505324379 119 133 139 1.7571580405305853 16 3327 15 2667 9 2049 8 2930 11 2340 38 1992 7 2012 30 1999 11 2339 28 2517 6 1348 12 1316 19 2442 5 1422 4 1424 21 2443 25 2746 8 2767 28 1248 6 905 12 991 19 2243 42 6961
13695 -1.1416688954939564 2.6938626759717108 3.4292102363090828 24 43 40 1.9609152298849952 31 2476 35 2144 38 2010 17 1848 39 1514 18 1643 18 1977 7 1333 8 2204 30 1088 28 1545 6 2458 4 1844 5 1087 25 1761 7 877 30 600 4 630 31 2545 20 2442 35 2118 38 1927 17 2008 39 1645 18 1762 18 2267 28 1376 6 2769 5 1122 4 642 7 1221 30 577 25 1764 25 1932 25 1935 40 3267
13696 1.2888996987864922 1.7340306131695911 4.5798653463070744 92 92 102 1.8324615009998426 31 2641 36 2153 37 2038 14 3006 13 2967 10 1990 36 1349 26 2147 34 1571 20 1739 37 1642 2 2743 1 2871 15 1872 9 1817 24 1497 35 1191 38 1052 17 845 39 1018 39 1756 17 1667 18 931 18 1820 20 1356 26 2586 35 904 38 944 7 1562 21 2456 4 1055 28 2242
13697 1.5118189147565835 1.2962740394137702 5.1587087352883536 98 61 52 2.1761725142288504 28 1265 30 2001 7 810 19 1692 23 1491 26 2017 34 1649 20 1772 29 2010 33 1794 27 1623 31 2261 36 2198 23 1976 26 2216 34 1855 20 2033 37 1820 29 1991 32 1914 13 2430 16 1285 16 2578 14 2075 10 2462 2 928 3 1046 3 1048 1 2547 15 1723 9 1742 8 2614 24 1296 24 2009 35 1341 38 1234 17 835 39 1030 18 2517 7 433 30 436 21 1174 21 2051 25 1098 25 1998 41 3391 40 3349
13698 -1.0810393959095661 2.5914927445552562 3.5752933524092145 90 45 34 1.9287754174580176 38 1932 39 2138 18 2322 30 2288 28 2226 31 510 36 278 23 468 26 282 34 253 29 1081 33 604 27 670 22 859 24 685 17 351 7 1309 8 2895 28 1015 6 2474 5 1320 4 1388 21 1452 21 2579 25 347 25 1448 40 3180
13699 0.58867158237960704 1.7919935704865848 4.5623270736971797 138 150 154 1.4342818574599847 31 904 36 736 23 1025 26 1840 34 1835 37 1714 29 819 29 1852 33 901 33 1857 27 742 32 1085 22 1544 13 1392 16 1433 14 1466 10 1377 10 2824 2 1309 3 1006 3 2600 1 1190 15 1196 9 1322 8 1003 24 889 35 773 35 1873 11 855 38 1540 38 1759 17 459 39 505 39 1716 39 2291 18 478 18 1919 7 637 30 832 28 723 6 448 12 600 19 833 5 404 21 259 21 1040 19 252 25 249 25 1183 8 3045 7 2302 6 1836 12 2427 19 2085 5 1480 4 1423 42 1643 42 2811
13701 -0.22665355399847228 0.74408396794863851 5.8716467843873215 207 215 217 1.7169244967141244 14 1547 41 73 40 5817
13702 -2.834333299608423 1.1233716828865836 5.3813333507444092 187 190 178 0.41845585544807928 31 2097 41 101
13703 -1.8318306984524235 -0.48441678520084713 7.3946224265806606 130 93 33 0.45684884751395671 16 220 41 137 42 164
13704 -4.3476336315891944 1.3417449934362906 5.1642546286430777 66 120 167 1.6434232865167335 24 434 41 203 16 1569
13705 -2.7867494187206301 1.1599102910599244 5.3769969903461545 183 191 193 1.0658410192481842 31 972 41 231
13706 -2.2464642065509719 -0.027501776882334399 6.8461977682484685 39 48 74 1.418476368161816 16 567 41 289 42 736
13707 -2.8567802806112752 0.54499003383815092 6.380979146219353 0 0 0 0.17560807272822554 22 320 32 336
13708 -3.9991440524604354 0.47172929602823954 6.2313007764380499 199 209 219 1.7931161790332288 32 452 41 335
13709 -0.31657377314166008 0.52967437688949703 6.1009746915882195 32 56 123 1.3776448241291717 29 633 41 366
13710 -3.1173864591682139 0.72225064109674786 5.9056296196073728 72 45 61 1.3536249194566716 3 1442 41 577 42 8631 40 790
13711 -3.8354104392075814 0.76733837385372183 5.8609378250779942 172 167 163 1.4931194149377698 10 3207 41 588 40 5543
13712 -3.2373436045039115 0.17363871259088523 6.5869265503436258 156 137 103 0.62572441457702899 27 1911 41 673
13713 -3.6948911186790689 1.4612543622276288 5.0088553917816991 191 197 188 0.54237630916412105 13 920 41 716 40 418
13715 0.31427820591706307 0.45484345077105492 6.2369775047562257 21 30 25 1.8985626865363188 22 555 41 720
13716 -1.3274444289717779 -0.30863161524331745 7.1748318763005701 28 52 63 0.45931115157484054 16 1196 41 955 42 746
13717 -1.408149737497457 0.5435092249221346 6.1175807366674153 149 159 170 1.2896613344509746 24 553 41 982 9 287
13718 -4.3245961397074462 0.94314574080518931 5.6385281696464178 131 118 123 2.079739244432024 10 1791 14 706 16 2999 41 984 31 2117 29 2308 42 7848 40 1370 3 1641
13719 -3.1014179252364134 0.35261151884806718 6.3718938256485425 124 150 155 0.54439921161370475 16 2759 41 1013 42 2556
13720 -4.8273388025791313 1.1309814379383241 5.458988760149329 79 107 131 1.2226309292990261 16 1153 41 1036
13721 -3.8130649441135644 0.70346039446699216 5.9388581850645163 116 119 115 1.0614715496361524 16 3014 41 1038 42 5057 40 2049
13722 -3.7659344691118406 0.79707721989777847 5.6087547689783745 0 0 0 0.11953180753169229 14 1991 16 2663
13723 -2.9403268759519694 0.61369390379010103 6.050336338592408 39 71 122 1.1635464737680474 22 1407 41 1165 40 2397
13724 -1.386081088980633 3.8877425466845974 2.0868251661538939 0 0 0 0.11220216209666728 24 1645 32 1843
13725 0.40336258032382549 0.24171169181441987 6.4269794129618463 60 97 106 1.057628478152183 2 1901 16 976 42 779 8 454
13726 -1.3290132860699209 -0.076872107289826977 6.8891253437139985 142 101 47 0.052533350919534733 14 1528 41 1311
13727 -3.3380877323939737 1.2789531595200043 5.2232521313022051 205 206 200 1.0075507435167432 14 1424 36 566 41 1312 40 966
13728 -1.1741858584811642 -0.11127571159365679 6.9127617913126818 133 104 57 0.88687502270114338 13 767 14 854 41 1315 23 549 42 1151
13729 -3.2964325627648079 1.7529473836329619 4.615107839981766 181 131 88 0.48984489549155213 29 1804 31 657 37 932 26 815 41 1329 40 630
13730 -1.458829348062086 -0.038931773463418327 6.8428962606862189 145 118 62 0.48599977523623722 16 1476 41 1402 42 1485
13732 -2.3325650739796324 -0.10105084683792286 6.9236032569169375 91 71 83 0.48272985032281973 16 2734 41 1423 42 4650
13734 -0.78843936355901945 3.4914055925656364 1.9324995703589858 0 0 0 0.4091069354681417 33 59 36 68
13735 0.9277263772442933 1.1210352482675763 5.377491940360021 67 61 64 1.0046865136791827 22 1359 41 1696
13736 -2.3623025294044777 2.5286216942791144 3.6737047806682641 127 132 134 1.9797988194333662 10 1244 29 2082 41 1724
13737 -3.413157899845721 0.44728527849673272 6.2571715384099544 66 76 64 1.1365217059866968 26 2596 41 1745 40 2413
13740 -3.8575968504647835 1.2462345722060377 5.2630385393833441 172 112 81 0.91990110133558423 31 2133 41 1788 40 1548
13741 -3.3539685230051921 0.77924481807987533 5.8541319738936659 126 155 177 1.2068745400553633 1 1618 26 1827 41 1815 24 884 40 2500
13743 -5.04589009312153 15.629236355666334 8.9623170341527576 202 211 226 0.14632113856401996 9 393 41 1885
13744 -0.81933019209632407 -0.4939874176932742 7.4068626254054193 133 111 58 1.5718541617477302 16 3278 41 1925 42 1326
13745 -2.965912287122844 0.95650368183059897 5.6227085471930511 48 89 148 0.73367738571441021 15 3059 41 1935 40 1894
13746 -1.458829348062086 -0.038931773463418327 6.8428962606862189 145 118 62 0.48599977523623722 16 1724 41 1937 42 1685
13747 -1.1492646034529759 0.018626085478586359 6.764473665078266 117 96 79 0.87226406123149136 1 2740 41 1951 42 1691
13748 -3.2346545828254065 1.9397060566522115 4.3830745280209058 0 0 0 0.41750752212381265 15 1460 26 791 42 4175
13749 -3.8889278461038983 1.513098129652956 4.9252360555625074 68 83 114 0.19506591627770409 10 2844 41 1982 40 1657
13750 -3.7595027276612845 1.3647030193826519 5.1184693337341338 170 135 94 0.58345452866656888 29 2263 31 2281 41 2061 40 2689
13751 -2.9163751583659199 0.77879027895070174 5.8453398653281363 161 128 59 0.87980925544401445 9 2429 41 2065 42 5582 40 1853
13752 -3.1850260516558793 1.8392536964725987 4.5239232843537929 164 150 147 1.0119012917877925 11 1581 41 2112 40 1263
13753 -1.3308231845692748 0.92143940485533216 5.6504138638989048 33 13 9 0.69786037996306349 1 2197 41 2139 42 1822
13754 -1.5185460686083052 0.14334458714172332 6.5782723792308619 2 13 30 2.172776467140118 10 1219 41 2147
13755 -2.7165187729179423 0.96524302035986964 5.6055230908300295 69 57 58 0.50222337915999293 15 2341 41 2149 40 2533
13756 -1.1698209128064589 -0.01460193251346562 6.8003966480951785 119 98 58 1.2484772302714633 2 2554 16 3053 41 2154 42 3635
13758 -0.69288411396390526 1.3945961811061813 5.051416966455589 105 69 55 1.7844320299558358 14 1087 41 2194
13759 -1.9113143566542183 2.2700110830770215 4.029223761177021 181 67 61 0.26864637143006431 14 937 41 2195
13761 -0.93586091635310253 -0.059732654211266792 6.8606084632584974 56 54 49 0.37275392501053545 16 3071 41 2264 42 3504
13762 0.14241990725753903 0.25185940339328472 6.484082286120505 18 19 21 1.5118229767934936 2 2124 16 3273 41 2278
13763 -1.8877386049466993 3.4086649126154924 2.5952097815263926 199 201 198 1.4259918667636715 1 541 32 1419 41 2392
13764 1.1331779728324103 1.894252984403016 3.9349406206878199 216 220 219 0.98713901422178585 5 74 7 128 41 2597
13765 -2.1361947773760148 -0.031225107882806327 6.8536274513544599 179 145 143 1.0413810226138354 20 2038 41 2664 42 7036
13766 -3.7271312807264292 1.157770942536295 5.3730528430385478 209 213 212 0.67301332264586711 24 2243 41 2673 40 5596
13767 -3.3315033516013717 0.89389013824421337 5.6979255464874488 158 183 214 0.82470991536580773 15 3233 26 2442 41 2674 40 4264
13768 -2.3181619891945462 -0.22729725279706284 7.0827016313130526 165 166 171 0.39532146783596761 14 3131 41 2699 42 6992
13769 -2.2837958958148383 -0.17749569004470936 7.0214270889659929 163 161 158 0.25415138240987561 16 3296 41 2703 42 4334
13770 -1.4651887809569075 -0.68522895877719781 7.6476129587263815 32 25 22 0.65243562651235221 16 3231 41 2705 42 3393
13771 -2.5387631790453038 0.18196274906304039 6.540203052378966 29 95 137 1.029764648203914 16 3125 41 2722 42 1815
13772 -1.4651887809569075 -0.68522895877719781 7.6476129587263815 32 25 22 0.65243562651235221 16 3416 41 2729 42 3775
13773 -1.2811443561711393 -0.75881310654686396 7.7399401119284734 124 61 61 0.70450716675901637 10 2433 41 2744 42 3777
13774 -2.2837958958148383 -0.17749569004470936 7.0214270889659929 163 161 158 0.25415138240987561 16 3147 41 2780 42 5457
13775 -4.4989760769135634 1.4985713749821596 4.9452690731373243 53 33 35 0.89771402999158545 16 2866 41 2785 42 5080
13776 -3.4577980164288058 0.90537567264456087 5.6779765892316583 65 91 114 0.27712107292225369 9 2751 41 2795 40 5575
13777 -3.2450693236411206 0.84826170965407455 5.7499311619747191 180 206 226 0.37836749318432811 9 2736 15 2296 41 2808 40 1890
13778 -3.070286986537218 0.44007372575447651 6.2879678380412454 41 49 71 1.2304479409490698 16 2976 42 8273 40 2459 40 3515
13779 -4.3662205906599043 1.3628509858203106 5.1119531174581914 89 140 172 0.59919072234343251 14 1139 41 2824 40 2280
13780 -2.5387631790453038 0.18196274906304039 6.540203052378966 29 95 137 1.029764648203914 16 3310 41 2836 42 2063
13781 -1.9314515763787639 -0.91808226104660462 7.9203859250431865 162 141 129 1.8066501170041651 16 2431 41 2865 13 2739 42 3759
13782 -3.9213601640976905 0.52573218484928397 6.1595444171076537 108 110 117 1.4554634069473942 22 1873 41 2942 40 1880
13783 -1.5261310378799238 1.4431476253817732 4.9638934577500491 44 29 44 1.248364774647059 24 1860 41 2964
13784 -1.1289505716651445 1.1264381539304982 5.403775863428387 130 71 50 1.5312483593288844 8 1110 24 663 41 3008
13785 -0.43027561611885046 0.083560499156232856 6.0477062612778907 18 27 54 0.61913697045318283 15 588 41 3016
13786 -1.3304392669953824 1.7733587731918359 4.6010075588696537 63 58 54 2.4131391950084233 13 36 41 3048 42 4030
13787 -3.089604402583078 1.5572216037147912 4.8756936451367405 37 53 64 1.1546190517284873 13 3192 41 3085 40 5577
13788 0.038123533718588794 -0.37022744625623338 7.2611717728820171 41 42 39 0.58192174941555685 16 2256 41 3092
13789 -1.2255671798333314 0.0015730869387021954 6.0517827109076947 17 26 65 1.55331653523887 20 1976 41 3131 42 7381
13790 0.10012613109795231 -0.021261403171038425 6.8167501848718564 204 204 200 1.4452030733656027 2 2319 41 3140 42 5124
13791 -0.69524084106005912 0.11489435912210748 6.6354967272764274 68 48 27 2.2460754048189155 14 416 41 3164 42 2297 42 7220
13793 1.2623091532796218 3.9144688910109209 1.8211690951949173 83 87 94 1.6650430262936509 33 158 41 3210 40 395
13795 -1.1073077278913652 3.6425791659126157 2.2926967100761657 0 0 0 0.019633591794614654 29 375 37 358
13796 -4.2796282232131704 0.83285459345894219 5.789853704109043 159 167 183 1.221085646188802 31 2183 41 3415 40 1060 42 3913
13797 -4.0646583583662688 0.79318340949746069 5.7921814060087522 113 130 153 1.2312752905758564 2 2470 10 2772 40 5430
13799 -1.0634907697891127 1.1966458824919353 5.2614466434936569 57 10 3 0.71114566003454005 33 2068 41 3537
13800 -2.7700194576348953 0.17192950738557242 6.5602143800001649 42 47 57 0.12644234400178223 14 2842 41 3566
13801 -0.47841596588347712 -0.55544532721402495 7.4677727702489953 194 202 200 0.59607735661826222 14 2869 41 3618
13802 -1.2772547920173876 -0.27637877968501029 7.1381216835635319 62 100 103 0.62295999724674622 16 3092 41 3673 42 4398
13803 -2.7706051743487294 0.94413759216474413 5.6358094291654677 193 187 165 0.28734527914181146 15 3053 41 3687 40 5116
13804 -2.8826644097707788 1.0558011122727637 5.4819950132048305 65 63 69 0.2430995084417947 9 2740 41 3696 42 4001
13805 -2.8116925155816688 1.0196058642044854 5.5409853687390838 190 189 164 0.60627572205454305 15 3262 41 3697 40 2476
13806 -2.7470318586953129 1.0221433538687008 5.5336138043967251 182 174 152 2.0203681942116241 9 2726 41 3700 42 4042 15 2295 40 5135
13807 -0.60579563691605887 -0.36988541613960618 7.2669592141305666 189 194 195 1.3718216846853146 16 3274 41 3701 42 7761
13808 -0.26263503008288064 -0.72465234482703189 7.7043726380159168 29 31 28 0.68126526811349897 16 2569 41 3728
13809 -3.843593368344087 1.078640285682674 5.469933594314738 202 210 198 1.1877642016052943 16 1597 41 3757 42 2175 40 1716
13810 -3.9607694664365622 1.1940491708069774 5.3392616490329488 208 169 119 1.4779683122894247 1 1634 41 3765 14 2703 40 2704
13811 -1.6353772182353845 -0.34063263121215548 7.2185033098299192 38 84 99 0.52119968683793882 16 3048 41 3766 42 4498
13812 -3.4218120474157421 0.64866918490113101 6.0147372600596638 74 80 93 1.3365672022959094 27 257 41 3768 40 5676
13813 -2.5955081069786994 0.14407029078665623 6.6009757934935251 176 175 180 0.34546297245722374 13 1872 41 3791 42 4693
13814 -3.0295992011067301 0.72712844612227645 5.8987182251139698 145 61 31 0.2499707856774491 36 1037 41 3800 40 3015
13815 -3.9618346078253452 1.3587662182102358 5.1235248343423381 227 202 166 0.52311204744327833 31 2283 41 3806 40 1675
13816 -3.7920449103292171 1.2399364684217125 5.2644917723343703 219 212 193 0.62330829956324918 31 2430 41 3807 40 4714
13817 -3.400678059737352 0.88462429229302508 5.7124359335536896 65 74 106 1.0372935595799304 15 3246 41 3829 40 5207 22 1847
13818 -2.8018608481051785 0.5270488623880164 6.1685658208763128 122 154 192 0.49729438328019149 14 2663 41 3835 42 2557
13819 -2.0264176973487902 0.057758830658226387 6.7284094666985768 158 157 169 0.069263250836648735 33 2094 41 3847 42 7048
13820 -2.5878087360571111 1.9157416886156347 4.4224456159483703 48 80 108 0.4453947218964624 20 837 41 3860 40 1689
13821 -1.4346723161776826 -0.76798108509041063 7.756379426576232 173 149 143 0.30076436114092125 16 3422 41 4035 42 3411
13822 -3.4046925483091557 0.88432538303026986 5.708603294550203 65 74 106 0.67935871554511962 15 3268 41 4040 40 4260
13824 -3.7051592212407058 1.5493929974078968 4.8595299846531574 89 105 121 1.6546037182835889 10 2604 41 4118 9 827 40 3083
13825 -3.345667533447048 0.98581840911352958 5.5905658433841694 133 169 209 1.765725712566323 15 3026 41 4163 42 6354 41 4162
13826 2.3377780999789359 3.5529929841581969 2.3477480763083403 73 77 77 1.93800550749833 1 314 41 4720
13827 0.041525626422998514 -0.195698440902878 7.0460902169277517 26 28 26 0.89109703959707576 10 3036 41 4989 42 2446
13828 -0.10417268327939407 -0.28292560661698168 7.1537884968433145 29 30 27 0.89830805912323708 10 3025 41 4999 42 1800 13 2056
13829 -2.9825013720606059 3.0851951826511277 2.9627510392900209 72 76 77 0.42622394555873044 10 3145 26 1264 41 5259
13830 1.0611069470636587 0.71876693873086572 5.8964300822273614 83 85 95 0.27925665418282425 16 2016 41 5272
13831 1.6335534979568302 0.23210902887861579 6.5101843246460902 61 63 60 0.15847593021908457 1 2723 41 5288
13833 -0.70384365126317483 1.5374067714515571 4.90617542204137 103 65 46 0.2677305973858034 16 3460 41 5322
13834 1.7793911668015039 0.32021066608214571 6.3999189235560401 63 65 62 0.23011264479284638 10 1869 41 5372
13835 0.49526846212557829 0.47947452678332869 6.1819027937820472 74 132 136 0.24109170179377448 8 1170 16 1989 42 1336
13836 0.12293683876586334 0.18676578386140916 6.5325141712435872 4 27 30 0.067214429044607366 8 2471 41 5539
13838 -4.2639365697510421 0.85367125507257235 5.756017995946098 99 107 122 1.8128270763252186 10 1985 41 5672 40 2945
13839 -2.4499030628640392 0.70088487045592718 5.9493172639917375 14 18 19 0.5852147427867288 15 2290 41 5774 42 4567 40 5372
13840 -2.1925707786711071 0.15962209465369795 6.6213306167139372 104 109 123 1.7244230136304299 16 3162 41 5933 42 4633
13841 -2.3736242787500808 0.35211239417698159 6.3860037294036678 189 169 172 1.5131421677362056 16 3312 41 5952 42 6669 42 7244
13842 -3.3915710291920691 0.80645713532061303 5.8219016147276763 69 93 125 0.93049485910601482 24 245 27 789 41 5982
13843 -3.6685159766785467 1.0642586051524554 5.5189491882077446 65 79 112 1.3683443989152475 2 296 41 6007
13844 -3.4838039106048933 1.2951442567482538 5.2353970537229166 220 228 225 0.89613149173715045 31 680 41 6024 2 1718
13845 -3.5673015547262081 1.1561900222128887 5.3426655553996039 160 174 189 1.436152988259046 10 2655 41 6078 40 1979
13846 -0.81193489980364475 -0.60095506337780347 7.5514594216056796 15 26 32 1.0512523531705327 16 1289 41 6115 42 2266
13847 -2.4241887902914492 0.049690933145222431 6.724852633804538 37 44 66 1.6548657877095221 10 3193 41 6254 42 7359 41 6249 40 3764
13849 -0.46852272636617232 1.068384316352244 4.1897790181863623 42 42 35 0.23923914377150357 5 566 30 545 41 6528 7 546
13851 -3.3600242716868554 2.1731919111579074 4.1163386736325842 97 56 65 2.2331575781278872 14 2739 41 6702 40 3043
13852 0.12576289667674162 0.18997509326238751 6.5406935399500545 4 27 30 0.95574513524397198 8 2724 41 6717 42 5092 25 2335
13853 0.16760543017272719 0.022791998497744274 6.7447794832015662 39 50 43 1.3024848491640986 10 2882 41 6731 42 3690
13854 -0.89939265488225872 0.038876782523552665 6.0037385954233242 22 36 89 0.2628490600842785 15 2421 41 6733 42 5453
13855 0.25284419806409353 1.1855651231148279 6.4774929643379151 192 210 213 0.96992901103862428 9 2298 41 6743
13857 -1.6796872669614049 0.72343511877425648 5.8770791225080314 198 199 199 0.61183566411765211 32 1285 41 6781
13858 -0.16065984484066642 -0.20563338841659681 7.0958498572643744 103 106 99 0.29962569717676418 16 2612 41 6812
13859 0.37916188810757206 0.16881464828213921 6.5452312870854081 86 72 67 0.62277099077753351 16 3187 41 6842 42 3682
13860 -2.3659841500313226 2.0022917785453602 4.3081371415728871 58 99 130 0.40028952698925074 1 2408 29 817 41 6844
13861 0.19766788956151526 0.33033776966634304 6.3295896420435369 44 63 63 0.5740577217245536 9 1754 16 3283 41 6882
13862 0.92497659769652762 0.33455498320458116 6.3916281658534366 44 46 44 0.50663432147922205 8 1551 41 6960 42 1797
13863 -0.41497661160813187 -0.46148850520919837 7.3814068874314431 49 52 48 1.0347290762043231 31 789 32 599 13 2388 32 2339 16 667 16 3188 14 449 14 2079 10 2478 2 2576 3 582 1 2532 17 309 41 3708 31 741 32 555 13 792 14 531 10 710 2 722 3 705 1 643 24 541 17 308 42 2442
13864 -0.051839873218513341 0.1911394893903223 6.5277418115919561 9 33 28 1.8974302130762066 16 1974 14 1607 41 2207 16 2455 2 2485 9 1759 42 3764
13865 0.80391643106890753 0.59704238312375491 6.0356397522726786 72 86 86 1.7449492184732249 13 583 10 683 2 694 3 538 8 1156 41 1319 16 3362 41 3521 42 3805 40 287
13866 -0.78511451334417004 -0.17976264591741772 7.0078479064784904 112 123 124 1.6435886940761233 13 2919 16 2470 14 2892 10 2679 41 2281 13 2922 16 2473 14 2955 42 3550
13867 2.085206239662921 0.85929978609972668 5.7442810217901403 60 63 60 1.1051163827434258 2 1735 10 1440 3 1928 8 1417 19 1566 25 2587 41 7190 29 301 27 224 32 155 22 253 13 1656 14 1738 10 1352 2 1737 1 2039 8 2207 24 225 42 1778
13868 -0.032262392592657514 1.7286666941017901 4.6404379340082889 31 47 63 1.0098448940562443 13 1152 16 1100 10 2805 16 3112 2 1130 3 1555 1 1476 15 812 15 2229 9 916 11 1464 12 1543 41 1692 31 2252 23 2197 26 2613 20 2133 29 2046 27 2091 32 1657 22 1601 3 1556 15 725 8 874 24 1617 11 328 39 2050 18 2195 12 385 6 395 21 623 42 1818 42 7243
13869 -3.0706241906615039 1.0646008106713634 5.5274034984833316 137 142 130 1.6169576504267942 36 360 23 261 26 347 37 428 33 381 15 1898 26 2447 41 6055 22 131 13 1128 14 682 10 1833 24 519 24 1897 42 3194 40 2885
13870 1.1592951321968259 0.47139092417577533 6.1907890103377206 127 138 143 0.88205562987785979 13 175 16 118 10 142 2 138 3 330 24 665 41 2042 23 2007 37 1760 29 2299 27 1788
13871 -2.8697615427185386 1.5925160660090365 4.8299924569645256 4 24 34 0.44913184879620438 36 1430 23 1190 26 1285 34 1020 29 2227 33 1332 41 1946 16 1590 14 1837 2 1823 3 1746 1 1766 15 937 31 1947 36 1502 23 1010 26 1133 34 972 37 1637 29 1975 33 1654 27 1804 22 1784 13 1321 16 1798 14 1417 10 1948 2 2040 3 1745 1 1646 9 1511 9 1636 24 1765 41 1950 40 974
13872 0.91661394165954679 0.1524710243944051 6.6061346498061004 33 35 30 0.15717733827960764 2 2140 3 2848 8 1603 41 5500 13 2536 3 2847 8 1604
13873 -1.7661026318603323 1.1497195762137316 5.3054300490257207 122 103 107 1.9407131672000009 15 1482 11 1084 41 3137 34 858 20 2132 22 1978 27 561 29 513 35 1749 24 1771 31 807 42 3171 10 2728
13874 -3.6631811375148642 0.80934197657014217 5.8045719940723108 66 74 76 1.5634561078250937 32 765 22 846 24 1208 41 1762 9 3023 14 718 42 1132 40 2864
13875 -2.8056764211492449 1.0885674950623161 5.4548178360379067 129 128 110 1.7580658583983271 14 1445 1 1130 13 2655 14 2817 16 48 24 1888 41 1320 16 3334 15 2078 9 1619 42 8555 40 1080
13876 0.027011298609575556 -0.55012011563599628 7.4879382679021385 32 27 24 0.3008594004695887 32 2435 16 2563 10 3032 17 1801 41 3124 13 2976 10 2706
13877 -2.786632070189063 1.6045106074608868 4.8126759172811679 43 45 61 1.0365423725748528 36 27 23 19 29 22 33 27 31 13 34 14 27 24 32 16 36 1867 23 2210 26 2255 34 1938 33 1858 27 2430 32 2247 22 15 13 2506 10 3140 1 2789 15 1598 9 1607 41 3174 42 7989
13879 -2.3360446472078875 0.84745493037489983 5.7147741214988912 63 83 95 1.7511407442756834 13 2817 16 2975 36 1480 15 2328 22 1309 9 2184 41 3527 10 1800 9 2762 42 3972 42 8345 40 1553
13880 -2.5825151631155068 0.88700889375497982 5.7067739188104474 95 61 45 2.1702107977193541 32 2380 13 2792 16 2926 14 2848 10 3144 3 2641 1 2416 10 3097 24 2190 41 2144 10 2590 14 2847 1 2399 15 2085 41 3704 15 2332 40 3498
13881 0.10881455634545735 0.088049357466750092 6.7266916020539478 34 25 8 1.5852351146359718 41 6680 10 836 16 1216 22 1972 3 1455 42 1308
13882 -3.3276753278423294 0.28827030830883643 6.4411502899377338 94 76 48 0.74417327116558174 13 3290 26 2014 16 2770 14 2696 13 3302 3 2425 1 2263 24 1249 41 1781 42 2570 40 5393
13883 -1.2046432770539526 -0.15878859387489139 6.9920769940017475 151 105 47 1.7035041346285151 24 841 41 650 42 761 20 478 17 260
13884 -2.0264176973487897 0.057758830658225575 6.7284094666985768 158 157 169 0.069263250836674103 33 2097 41 4043 42 6897
13885 1.4925246743296945 0.32412145808623311 6.3937821138778839 65 67 63 0.12530588758653063 2 2113 41 5254
13887 -2.6131763635031393 2.567709272216308 3.6122137192708896 245 249 247 1.6262322452875519 3 183 14 1204 42 115
13888 -1.272909199601252 1.3535647309656316 3.8996977205290491 138 127 113 0.87784777973081185 12 16 42 212
13889 -3.6206628812624757 3.167078080502844 2.8120668694048101 206 210 214 1.3389469530582965 3 2360 42 250
13893 0.24267985310158086 2.2554655189553374 4.0145032854761595 52 88 79 1.7341103669838414 3 317 12 39 15 42 42 336
13894 -0.5659332661361387 -0.55872109183733343 7.5105791784561511 181 188 196 0.75920426422103726 1 621 42 360 2 647 3 584
13895 -1.3410574302264142 -0.61009037601092386 7.6159050733241651 36 44 61 0.074613092890034566 16 623 42 381
