# 3D point list with one line of data per point:
#   POINT3D_ID, X, Y, Z, R, G, B, ERROR, TRACK[] as (IMAGE_ID, POINT2D_IDX)
# Number of points: 336, mean track length: 7.3587945571416649
5911 1.7292149209442373 2.6983035586455575 3.1268517174681558 21 14 8 1.529316222116625 19 603 39 157 23 189
5912 0.3079872962257264 1.3582431831963313 1.7516086677135985 180 176 169 1.3636486876718923 22 176 23 1875
5913 -0.79290204081929705 -0.097454705633328337 5.3294079493008297 174 172 157 0.68852840127164683 34 288 35 439 22 177
5916 3.9321487901409529 1.222757126349906 5.3092151147014954 106 115 130 0.9741310784227879 19 250 22 208 39 242 37 286
5917 0.69999707897832786 2.2442928662683936 4.0024626893927735 0 21 55 1.9783693836941392 42 366 6 1074 17 693 21 818 20 813
5919 3.8451953364358618 1.2312127752367212 5.2141754911838012 106 115 130 0.40268323132269351 19 204 22 254 37 213
5920 1.5313351182675512 1.4250316419507514 5.2541200234864238 137 98 89 0.79652233814692763 19 246 39 533 22 257 37 352 23 100 24 94 6 183 25 154 29 59
5921 -2.5996644094550234 3.1724331799157324 3.8166392223045333 35 82 126 0.26282658819285404 39 353 22 265 37 197
5922 1.5581423525733127 3.1914002295024413 3.3844759130224085 17 25 42 0.37765305799646981 19 410 22 286 37 241
5924 -2.1426129420656772 2.3260761844683335 4.6942156918022429 0 106 157 0.39871979360698334 19 538 22 334 37 340
5927 1.7506907000544947 2.9928801554748481 3.7248290330759368 54 75 85 0.55262562265719317 19 507 22 350 37 347
5928 1.7553977322669405 1.4637622970572433 4.7277370096410838 85 82 92 1.1575855454246791 32 934 39 566 37 356
5929 -0.22921617165078972 1.5213194659526339 5.193350340256945 16 29 28 0.17703971943240759 39 368 22 380 37 382
5930 0.96159019726673589 3.0720972257041019 3.7308297670398449 62 85 102 0.32597763204735647 19 362 26 502 22 406 42 406
5932 0.31056524231710403 1.1305546393940642 5.2399979102972143 209 227 231 0.61716181746142007 19 523 22 433 37 581
5933 -1.5175721111352705 3.3261902177688465 3.6241710005392531 6 108 129 0.35312622188586046 26 862 33 1145 34 2003 39 778 42 887 22 438 35 1831
5934 0.92128083242233538 -0.75737822048346748 7.878039032093251 132 129 115 1.304205575056554 19 682 22 439 6 493
5935 -0.36821793368782385 -0.17941327782998509 6.5622399857240286 74 96 61 0.18517883844539865 19 567 24 107
5936 0.78147807976928252 0.9001830369103847 5.9687317684381709 39 70 88 0.70290074418776305 39 609 22 445 37 415 23 220 24 214 25 157
5937 -0.71207989210029277 2.9073775147865821 3.7944062030153032 54 35 42 0.87139401688965479 19 468 22 483 37 674 41 312 28 570 23 152 6 336
5938 -1.1224206541316166 2.8250838317198799 4.1561066106120048 139 55 34 0.27060588324673607 30 767 40 1215 22 484 38 899
5939 3.8709748733979961 1.1828936605688523 5.114669792320556 72 87 99 0.51079960182062012 39 661 22 514 37 606
5940 -0.60600306741181043 0.22343570921661884 5.2901487852056253 16 26 8 1.2960002497292293 26 583 22 520 35 515 28 1000 23 377 6 1594
5941 3.320564223808586 1.3953302609863278 4.8716203950742836 51 62 82 0.66052157996247918 19 572 22 527 37 600 23 375
5942 -1.5167085879729361 1.8883800032987941 4.9877914612445542 248 255 242 1.5470376087720439 19 1856 26 1965 22 542 32 507
5943 -1.9526324262781125 0.83459417005669512 6.5770845365151995 0 88 137 0.97006675779344731 19 1651 22 556 37 498
5944 -1.0107162464832653 1.5534618998471155 5.5755053061250379 37 117 106 1.0848237561165013 32 657 41 616 1 172 10 364 8 478 9 344 2 388 4 346 5 357 7 319 14 336 11 185 21 84 29 77 25 88
5945 3.3004198057989549 1.2269141522181461 4.6474041180252605 104 119 130 0.86181215640641096 42 174 37 859
5946 -2.1968372549780253 2.34943675831278 4.7158209925732555 222 218 214 0.40461599291880129 19 723 22 674 37 873
5948 -2.0875655653645673 1.728572446289405 5.3772446991903937 139 168 187 0.65324004574393646 19 509 39 1602 22 691 37 617 23 362
5951 -3.0467710471160379 2.666331593677481 4.4520976147846385 221 155 165 0.15665339220205929 19 696 22 745 37 510
5953 -0.36162685905671038 3.5745609358387256 2.9815263853194742 94 115 131 0.28116446492052888 19 708 22 766 37 995
5954 -2.2251691803982254 2.4290370649484743 4.6138240241701514 34 71 104 0.31958643271150777 19 489 22 778 37 688 23 479 24 204 6 756 1 534 14 898 7 901 11 729 15 522 16 438 13 333 3 737 12 917
5955 -1.374638205180887 2.8368420591241659 3.9625427394021071 199 151 70 1.634034754151845 42 1321 22 796 24 1184
5958 -0.18566590233136615 1.8771674374396703 4.8462867892097607 38 29 14 0.59049242255547907 26 683 22 836 37 762 23 725 24 373 4 3044 7 3204 14 1229 11 1188 15 883 16 595 13 378 3 1127 18 391 17 266 25 497
5959 2.6708493047486361 1.6907573980581887 4.5101226473197649 97 118 132 1.7227759078972478 19 880 22 840 37 2256
5960 0.34215664454708478 1.2802264698372467 5.1332864381997174 37 64 79 2.3303313597277118 42 520 22 847 23 1660 20 1162 21 1457 29 1402
5962 0.66781858161638419 -1.2677516876066948 7.7561347726858747 178 177 177 1.6479955600226441 19 2129 39 926 22 869
5963 -1.1276298060085297 -1.4025980801803626 8.6859355028049912 179 172 158 0.91985654384445237 19 1497 32 2391 22 876 26 588 37 1208
5964 4.059802216662975 0.64245939564188992 5.5645161670603409 93 113 123 0.024382219769720624 19 855 22 878
5965 -0.67595368048381943 -0.57432589498136333 7.3425067594009867 132 138 143 1.6267375169649039 19 1239 39 1118 22 880
5966 -0.70921121041300605 0.22250194306829518 5.495705476468876 58 89 60 0.25849378074771134 26 2326 22 884
5967 3.9563192132236837 1.2018191592994456 5.2898216174109178 113 118 133 0.24350892677074609 19 1079 22 887 23 1320 6 1630
5968 2.5846597571536436 1.1328129539642651 5.2032317961208481 62 79 95 1.7694183167782072 19 1067 22 890 37 1621
5970 -2.5902050526926859 1.6051571175335084 5.5797863520840529 156 44 23 0.84422443588644214 19 2456 22 920 37 568 11 3145
5971 -0.81583508625883383 -0.3454972941958766 6.6420743255106602 132 138 143 2.2726088038401473 19 1083 22 926 37 1527 27 2123
5973 1.3162291891523128 3.4622862762087769 3.2406666479942197 85 99 116 0.48942198012601729 26 1335 22 965 37 1414 15 2234 14 3547 18 3117 29 2329
5974 -1.377134596172473 2.8459626957965947 4.0600226476158392 199 151 70 1.3870840863891838 19 2237 22 974 37 2371 23 1107 24 3033 6 2007
5975 0.6630357803247946 2.8965240282898694 3.5126702262891425 0 23 60 2.4411321625780706 19 1786 42 1008 37 931 22 986
5976 0.3782170592327363 3.9225965598989756 2.885933956224938 76 93 112 0.28605619549536943 19 1647 22 1004
5977 0.0052957816838164464 3.7646061971569487 2.7095356327539242 107 119 134 2.6843867414352944 33 1193 22 1007
5980 -0.50321055256927949 3.7366246016309348 2.7946031443105723 80 101 117 1.2650109110757799 26 1387 22 1020
5981 0.80486302057441339 2.5825805051599904 4.3473573780156576 60 87 109 0.26762927882814724 19 919 22 1055 37 752 23 684 24 740
5982 -2.4512291980616099 2.3927065766373987 4.663754106330094 249 246 250 0.62725765260117805 26 1829 22 1072 23 585 6 1888 2 2602 4 1835 5 2780 7 2186 15 1337 16 1278 13 353 3 2063
5983 -1.6356661187347115 1.560458820340793 5.5808062818182727 189 184 168 1.1457315093986413 33 1572 22 1083 23 1070 24 2116 1 2539 25 1678 21 1119
5984 -2.4369396757176447 2.3941269345198002 4.6694653040964003 249 246 250 1.5542941220332753 26 1755 22 1092 37 2444 19 2279 23 518 6 1926
5985 -0.79067258876319857 2.6381300840225821 3.9963795339255741 192 91 39 0.80775947364092415 42 1827 22 1113
5987 -2.5899481607818715 1.2641751550901614 5.7909976736535977 177 161 153 0.55461329463928299 19 2508 22 1133 37 2773
5988 -2.1247333263300208 1.3813943531170119 5.8283090461729108 50 89 109 0.37408333996422349 39 1976 22 1135
5990 -2.909745526350493 1.9658759561311103 5.4527316480508068 1 110 149 0.94386824408255232 42 2830 22 1162
5991 1.6172905863928448 3.0660536916910606 3.3424556758460642 76 92 105 0.65494176742654697 19 298 22 1166 37 1889 23 1212 42 975 24 1389 15 1730 13 1592 18 1523 25 1401 29 1381
5992 0.38571459216818732 2.8933153300742469 3.7072283602972402 89 112 129 1.2833097201672594 19 999 26 1004 22 1172 39 961 42 991 37 1087 22 2088 30 2105 34 955 35 966 36 1818 40 1854 38 1851 27 1750 41 1345 28 1840 10 1771 8 1537 1 1766 9 1740 4 2094 5 2116 7 2049 7 2054 14 2503 11 2524 18 3228 20 2654
5993 1.4287553499192589 3.2583013756360124 3.558495678409856 49 69 93 0.48501676502137431 19 1820 22 1175 37 1275 23 1476
5994 -3.0641149723410965 2.0250227936541596 5.1771062773138476 57 99 104 0.35285874177978099 19 1602 22 1176 37 2410
5995 -0.40445652804986465 2.7149848709268665 3.7387468802982768 103 129 147 1.4038374431657645 19 1782 22 1179 37 1092 19 1785 23 1086 1 1739 7 2173 11 2407 3 3107
5998 -1.6596918241834264 1.9200920130309242 3.9316264664066067 163 191 141 0.18073747482541114 38 2874 22 1195
6000 -1.9916295751550916 1.6948696826312226 5.4588136732030978 176 141 111 1.276283332199567 19 1033 22 1208 37 1034 23 1061 24 570 6 2869 1 1454 8 3224 40 2219 14 2289 14 3200 11 2257 15 1391 16 1009 13 1761 25 341
6001 -0.90535062106510333 2.2865247810027287 4.7429003620055443 70 22 26 1.1717393833412584 19 1729 22 1214 23 1102 24 1282 1 1486 14 2807 16 1417 3 2467 20 1668 17 667 21 655 29 1088 25 1717
6002 -1.415060605737533 1.8435122930156314 5.1198728912526379 152 83 41 2.4640045653626634 42 1177 22 1221
6004 1.8298391420607263 1.9937044628251284 4.0514634255900264 72 89 103 2.1583603285616695 32 2931 22 1231 37 1575
6005 -0.21311588499100897 1.310379999545028 5.3671215255691926 12 30 29 0.42259641088712857 19 1176 26 1170 22 1233 37 1144 41 1871 23 776 24 996 6 1913 21 360
6006 -0.90108115159001256 1.2723218883283907 5.8708096729378454 34 13 15 0.40075063025542412 19 677 22 1245 37 1189 23 768
6007 -0.81168045393137855 0.41812092907153969 6.0554672378610155 109 123 134 0.60226668947505579 19 1076 22 1762 24 874
6008 -0.66589639152508562 0.73932304669214399 5.7916867543739894 75 110 55 0.1369516741313952 22 1264 23 638 24 408
6009 -1.053505169950071 0.95602824198792702 5.4684869091336097 48 61 70 1.5187682644472518 19 2101 22 1282 23 779 24 953 29 447
6010 -0.74161324224263669 3.3515277867805149 3.269473565317448 75 132 148 0.49720302749697837 26 2033 22 1298 23 1643 24 1183 18 3279 20 1319 17 2455 21 1383 25 2167
6012 -2.161480182310481 2.3031941359535075 4.7558599462738744 59 83 109 0.3453775026943704 19 964 22 1302 37 2405 23 1525 24 1697 6 3004 1 1982 15 2717 13 1195
6013 -2.1607292944610363 1.7812362679517579 5.3764384514410377 180 180 183 0.34594171161742959 31 2335 22 1307 37 1912 27 1968 23 1482 24 812 1 1458 12 2937
6014 -1.9448936646041439 1.103518139463046 6.0357250743967894 153 178 183 0.98169489293379009 19 2062 22 1312 37 2065 23 1078
6017 4.2874670203230769 1.2976761992096575 5.328964560966222 40 54 76 0.13253987753859178 19 1245 22 1328 23 1322
6018 2.9859521319483746 0.89485132859622307 5.7127252116603033 57 74 90 0.75338465450828562 19 2366 39 1475 22 1332 37 2319
6020 4.2038096195949111 1.001398533947099 5.0640517839330803 153 140 127 0.095386182372266037 19 854 22 1342
6021 2.7022476562643556 -0.24563154815628319 7.4614407597060017 117 124 134 2.0732131159074463 19 945 22 1346 37 1202 6 2486
6024 3.3553224781415114 -0.11142274489108425 6.9032673443622903 81 92 104 0.065139817488084756 26 1071 22 1352
6026 1.4382554834767072 3.259003204757374 3.5673704737105512 49 69 93 0.6568238611551982 19 1659 22 1380 37 1096 23 1168 24 1602
6027 1.0182524674196134 3.1167250182174913 2.9878729275940028 48 69 88 1.1789633159798751 42 1687 37 1277
6028 -1.0528666617606419 0.95593227897782229 5.4637511589897061 48 61 70 1.3954273211671984 19 2005 22 1426 23 879 24 984 29 374 25 728
6030 3.9130337581285288 1.3403024559166035 4.9725576093671853 40 54 76 1.7743802748452302 19 1082 39 2025 22 1436 37 1246
6032 -0.90535062106510333 2.2865247810027287 4.7429003620055443 70 22 26 1.1717393833412584 19 1584 22 1452 23 844 24 1502 1 1239 14 3596 16 1893 3 3314 20 1591 17 538 21 656 29 996 25 1661
6033 0.84431185887748106 2.5383562989520687 4.1462752549508499 9 68 105 0.26688916788575179 39 1255 22 1460 37 843 23 1129 24 952 6 2302 20 787 17 1045 21 732 29 722 25 1057 12 2390
6037 0.34680189157902475 3.4238382717021594 3.4663051006495884 73 96 113 0.032899544546106455 19 1748 22 1503
6039 -2.2697919787837662 2.4922576602667044 4.5695353615596606 71 61 73 0.13005430270065027 19 1351 22 1544 23 1025 24 1130
6040 -3.0942748745377449 2.973361187040934 4.1135707945404825 164 49 59 0.74913300682146 39 2277 22 1569 19 1108 6 2711 1 2030
6041 -1.5634609371295609 3.1364173263745974 3.8357142292327571 0 137 157 0.40849827460221505 42 1967 22 1581 37 1389
6042 -1.8535966396093093 3.1023463771777018 3.87828229286669 37 54 64 0.32817530871610956 19 2623 31 2184 22 1591
6043 -1.6828427058722417 3.1606949192432312 3.7423329240393586 73 49 79 1.7897232490180126 19 1410 26 2455 22 1598
6044 -0.91160365175236702 3.3541612160914069 3.3520218090596408 19 146 170 0.28581791451651634 19 1918 22 1600 18 1569
6045 -2.2501757888605525 3.0228456316308692 4.0107572579856425 20 86 114 0.71942030201774232 19 1339 40 1988 22 1602
6046 -0.54804646311787431 1.979312911705073 4.9757002990922663 105 175 173 1.1410457446567523 39 1622 22 1613 23 1222 1 2212 16 2489 13 1090 18 817 20 949 20 1730 29 1515
6047 -0.81621899813721199 -0.83796657780899375 7.684654017272492 157 155 136 1.1954847592478348 19 2120 22 1621 37 1524
6049 -1.6039416662423929 3.5031043035338998 3.4162189998911687 81 183 195 0.15776378554271273 19 2339 22 1673 37 2493 18 1966 20 2202 17 2392 21 2409
6050 2.1247875187635881 -0.13338568529009745 6.811145151953772 163 163 157 0.068144412901984489 42 2343 22 1674
6051 2.3782731924010689 1.6465739934599171 4.5738298447292305 56 79 96 2.1980940757269187 19 1545 22 1683 37 1659
6052 -1.5410871728347948 2.9636712352136425 4.0638428326912761 0 135 166 0.58869177094542791 39 1848 22 1687 23 2688 24 1109 6 2675 25 1144
6053 -0.48257408587105244 1.0069438331144644 5.8175448374067749 82 128 72 0.21601149665040609 32 2248 22 1692 24 2271 29 1665 21 1347
6054 0.96679541976846528 1.4228254636278188 5.1026281649859975 173 125 105 0.36670247010029039 19 2629 22 1694 37 2267 27 1722 28 1589 23 1365 24 1753 6 1744 1 856 10 877 8 1036 9 937 2 1416 4 869 5 995 7 1018 14 605 11 840 15 453 13 366 16 360 3 928 18 393 20 751 17 426 21 825 29 893 25 1379 12 2624
6055 -2.0597720975177509 0.39418244848998091 6.8426078543316242 59 71 82 0.25654970977598673 19 2085 22 1706 37 2275
6056 -0.25235155805370352 1.4284354053160258 5.3072943309485199 22 98 94 0.74635557492385718 39 1519 22 1712 37 1681 23 1327 24 987 1 2213 14 2554 15 1151 16 692 13 1245 3 2243 18 899 20 1001 17 446 21 557 29 737 25 1464
6057 -2.0793290660199646 0.86827219808765654 6.3073400055352158 162 110 67 0.11928262730180676 19 1559 22 1713 37 1699
6059 -1.8176929102833763 -0.042355094714733969 7.0553162915056022 75 89 111 1.4915320032899086 42 2330 22 1729 2 2809 9 3186 5 2704
6060 3.55914662429422 1.4203694882575482 4.973574874415462 47 67 85 0.58769517055367926 19 888 22 1732 23 1271
6062 -2.9470447967869782 1.3860409647144878 5.813692821083623 35 62 72 0.054599693252803817 19 1938 22 1749 37 1932
6063 2.8853618712730933 1.7469795722677108 4.7174955750499272 66 52 47 0.15463480877333458 39 191 22 1750
6064 2.4299477362546256 1.5089736676581007 5.0606759881987697 90 107 121 1.0828305418789059 19 2102 39 1549 22 1753 37 2255 24 1831
6067 -0.8350092034090919 1.2321454502977502 5.9199902305444603 159 169 169 0.45573719030295867 19 2059 22 1771 37 2125 24 948 9 2197 8 2320 2 2079 4 2096 5 2223 7 2325 29 594
6068 -2.0840366021032004 0.86861813428296641 6.3558586037072162 162 110 67 1.1796493482567276 19 1619 39 1577 22 1774 12 1552
6069 0.10114551563551379 1.3587614830347283 5.100873990688588 46 47 59 0.20458966044366442 36 2137 22 1776 37 1650 23 1505
6070 -2.8255898054396522 0.25690177733971031 6.9958228862688827 93 109 119 0.42963797718595143 32 2384 22 1782
6071 -2.5333773877764583 1.414757618814465 5.721404460467884 179 200 207 0.15700768397671194 39 2437 22 1785 37 1770 12 3318
6072 -0.8484073536331781 1.7973743016129815 5.2622715590067672 104 14 13 0.17988808062905434 19 1564 22 1789 23 1957 24 1934
6073 -0.48748954877917722 1.7331010324794989 5.2050092315423786 35 56 50 0.54181853935307001 19 1572 22 1797 37 1669 24 858 6 2932 1 1237 8 2824 9 1877 4 2207 5 1854 7 2275 14 1756 11 1308 15 1179 16 674 13 709 3 2266 18 539 20 602 17 491 21 665 25 732
6075 -2.6635112202163982 1.3742247337453668 5.7614908374985365 174 159 141 0.29081636864393268 42 2748 22 1811 16 2182 12 3256
6076 -2.6415503367250919 0.57646349029315225 6.4760895565251451 80 85 102 1.3245161717730953 19 2095 22 1820 3 2263
6077 -0.83831779174365051 0.87343433232364143 5.7088496500951287 23 36 31 0.21270230616968089 19 1247 22 1824 26 701
6078 0.92959804114016797 1.1242044644831961 5.6779198917600198 129 119 101 0.95164422233775592 19 1616 22 1826 37 1658 6 1356 29 220
6079 -2.9209611292919275 2.3302874703593059 4.8019732530380459 164 176 182 0.12191839465676536 19 2172 22 1847 37 1720
6080 -3.0043144004924738 2.241640735795507 4.9340452269005803 207 154 150 0.092184571377629518 19 1666 22 1848 37 1733
6081 -2.7343327281507026 2.5990709327471526 4.494847395143613 144 105 87 0.40314598211718983 19 1687 22 1871 23 1591 6 2692 12 3788
6082 -2.7069831177937931 2.4778373406654897 4.626475351528657 69 56 61 0.24781533011098694 39 2074 22 1877 37 1727 23 1451
6083 -2.3896276471896831 1.6745168562701795 5.4821023090642704 38 75 103 0.32488284939988143 39 2095 22 1882 23 1898 1 2207
6084 -0.95920572620079503 2.6802429101043712 4.2802825690418222 188 72 39 1.2613932043663143 30 3030 22 1898 34 2744 15 3483 16 2743
6085 0.048533490716179191 2.6953583993185024 3.7532670764260021 67 103 127 0.32094384312363433 19 1662 22 1899
6087 -2.9617219714864502 2.4548301300307935 4.8305335860421419 53 87 96 0.83002341764164667 19 2308 42 596 22 1917
6088 0.82736914735933265 3.3615379043245968 2.9510124301903846 66 80 99 1.3029743050595002 39 1844 22 1920
6089 -2.7854095739284475 2.4264220570308486 4.6721714782424222 113 101 74 0.56735827447705733 19 1342 22 1921 1 1625
6090 -2.7059463179489378 2.4771294090444598 4.618135649489286 69 56 61 0.24463726016072043 39 2301 22 1927 37 1798 23 1632 13 1381
6091 -2.9199077963502011 2.3291974847727706 4.7886255389872483 164 176 182 0.22453413088554025 19 2325 22 1954 37 1836 16 2896
6092 -0.85507843183804355 3.4358448545019531 3.2584304396863835 192 122 109 1.5773348207472488 19 2424 34 2545 22 1968 27 2210 41 2917 23 2218 24 1683 21 2330
6093 -2.7883299084357316 2.9814209646723433 4.0282192626020752 193 129 125 0.30748006809142692 36 2840 22 1979 1 2568
6095 -1.7001777849134017 3.1090000804772639 3.8885558375382825 38 102 128 0.64889376405873178 19 1641 22 1982 37 1877 23 1602 10 3396
6096 -2.9810494250091777 2.6019772736959883 4.4852914804159782 129 53 61 1.6080858565092044 19 2186 42 2206 22 1983 5 2304 4 2562 7 3123 16 2312 16 2768
6097 -2.6757495556285864 2.7593305599345244 4.2993762660019801 119 106 83 1.0405072412916678 19 1719 22 1987 37 1381 23 1426 16 2466
6098 -0.78165444577115828 3.2542495535843301 3.4019472935956605 45 37 52 0.10978914635165138 39 2237 22 1989 37 1757 17 2226
6099 -3.0073136066623651 1.7330620935618648 5.4698331517882419 39 70 71 0.29921123765145008 39 2587 22 2004 37 1126 6 2096
6100 -2.6843880762820787 1.8786012274909711 5.280975403372504 59 148 175 0.14670690454291294 19 2539 22 2012 13 1970
6103 -2.3887851423931066 1.6750706350899383 5.4813090366311092 38 75 103 0.25109663564730328 39 2597 22 2026 23 1980 1 1690 15 2158 11 2725 16 1846
6104 -0.45413465353663418 2.3930909055290166 4.4889932650284905 187 76 30 1.0023444605353755 42 2782 22 2042 37 2669 23 1178 24 1314 11 2448 15 1429 16 1515 13 789 3 3332 7 3248 18 474 20 1185 21 974 29 1113 25 827
6105 -0.41926999562718908 2.6975131510916563 3.9928097740174873 48 46 46 0.072669087828243009 39 2551 22 2049 37 1666
6106 -2.2571348684355845 1.656205492084363 5.4898008491498143 108 120 127 0.27915117860261229 39 2459 22 2052 23 1167 24 1627
6107 -0.86076279201513772 2.6444848028826602 4.332739686357848 167 44 49 0.11315645616882386 19 2288 22 2053
6108 1.3551682048487659 3.3200850447214707 3.4747926549351758 51 71 90 0.35794798487629353 19 1793 22 2063 37 1103 23 1484
6110 -0.80681089214836266 1.6631871631976582 5.4341888689731475 18 119 107 0.21583224422562422 19 1658 22 2091 23 1487 24 1218 1 2083 13 1247 18 599 20 1018 17 552 21 713 29 1001 25 846
6111 -0.70039131568146784 1.684925444060613 5.3673810748776303 16 54 50 0.95566637519555131 19 2441 22 2093 37 2559 23 2228 1 2118 5 2917 4 3018 7 1859 14 2587 11 2393 20 1028 21 621 29 2749 20 2802 25 903 25 3110
6112 -1.6817580057510937 3.4357821957133847 3.4152351003069348 0 142 163 1.8891401062440485 39 786 22 2095
6113 -0.92009003852326021 1.9436397128471918 5.1339894012926122 28 34 33 1.1317411467245782 39 2593 22 2105 23 1294 24 1319 10 2286 8 2303 4 2050 5 2158 15 1351 17 555 29 547 25 1096
6115 -1.5070042634169605 3.4402223402194463 3.48925768726148 74 159 175 0.44770123242392523 42 2623 22 2123 37 2557 1 2774 13 2100 18 2162 20 966 17 1792 21 1207 29 1121
6119 -2.8067812648214514 1.2137582836592333 5.8815422663685144 160 64 47 0.078387271295846231 19 2033 39 2014 22 2135
6120 0.072449273948946763 2.0016977613684674 4.5028136255177724 78 92 111 0.40115005542477422 19 2472 22 2140 23 2231 24 1443 16 2914 20 1223 21 1291 29 1219 25 1468
6123 -2.3942193405814072 1.4678071455066237 5.6630784550446336 190 196 202 0.44391380018473892 19 2644 22 2150 6 2387 28 2548 1 1472 10 3382 8 3181 4 2250 5 2882 7 2362 14 2379 11 1306 15 1167 16 636 3 3242 12 3307
6124 -2.5980571552697573 1.3886132851105317 5.7377484563684789 128 158 170 0.23443291869994351 42 2746 22 2156 37 1967 15 2107 3 3239
6125 -2.1124267106346157 1.0561607455173179 6.1492771712977126 62 130 157 0.45700532963397339 26 2231 22 2168 23 1928
6126 1.5302535515699955 2.1592116148226235 4.036578173953723 220 219 223 0.9275139575881054 42 2100 22 2169 13 740
6127 -2.127575027769864 3.2121972222157771 3.7534709390380567 37 41 54 0.82175000484438654 19 1852 26 2439 22 2170 37 1970 42 2482 20 1767
6129 -2.6753924658346664 0.80316237443920213 6.3216444427461571 142 118 114 0.5361738900070393 19 2190 22 2173 37 2611 12 3275
6130 -1.8015025305082319 1.0474545617497157 6.2605957203234102 63 93 94 0.62366690097301047 19 1438 22 2180 37 1697
6131 -0.83480977525699718 1.2322225318011657 5.9204076102750225 159 169 169 0.47731207257432295 19 2010 22 2190 37 2612 24 851 8 2032 9 1833 2 1779 4 1650 5 1852 29 635
6133 -0.39002976070786183 2.1194578168903542 4.6448934597483635 201 158 78 1.6252673109899924 19 1965 23 2926 24 2996 20 1300 17 1358
6134 -0.24631770883888274 2.1413732898716167 4.6411723351677043 176 89 38 1.0624185240763508 19 2585 22 2226 37 2176 22 2222 23 2368 24 1946 15 3203 16 2349 21 1680 20 2245 25 2131
6136 -2.3414750614571034 1.8017840862632588 5.3719741789029003 138 153 168 0.32342322458516287 26 2158 22 2234 37 2185 23 1892 12 3829
6137 -2.2483390715333971 1.7131232156734684 5.4485525149616851 96 52 55 0.11338439221529868 19 1974 22 2237 37 2175
6138 -2.1736148982346424 1.7501703529086039 5.3978631625378908 55 56 64 0.2765020503667967 19 1978 22 2239 37 2164 23 1901 24 1493 1 2069
6139 -2.1724374477881794 1.7509215921934917 5.3986697021635015 55 56 64 0.28040506711557051 19 1977 22 2240 37 2178 23 1900 24 1492 7 3274 14 2410 11 3256 15 1951 16 1213 13 896
6141 -2.0352720205386818 0.41331223038468773 6.8687163606056849 76 91 101 0.30905731992444219 19 2001 22 2261 37 2269
6142 -2.4006846461938465 0.72023653573389423 6.3414114160353252 203 165 127 0.27940713257471467 26 2265 22 2267 37 2121
6143 -1.2194346816922814 0.8608286362412283 6.2403969670561033 101 109 118 1.7381204645497341 19 1548 22 2276 37 2494 27 1975
6145 -2.6421996297873567 0.48686111085837991 6.4580498719047625 106 122 132 0.18780401174495515 19 1093 22 2282
6146 -1.0744268058664532 1.6934729181522783 5.4655264018885612 0 97 86 1.1643708104188015 42 1810 22 2297 19 1208 37 770 37 2201 27 892 41 997 28 884 23 388 23 2365 24 358 24 2045 6 1059 1 424 40 1199 33 1104 1 473 24 428 28 1105 6 1317 21 170 21 172 32 2159 37 2197 29 235 29 323 25 321 12 1298
6147 -0.25732612297495283 1.9703835471186091 4.8126773686233504 191 140 76 0.070605080871223885 19 2045 22 2298 37 2200 23 1960 20 1305 17 1738 21 1683
6148 -0.2570721689512287 1.9701515231142719 4.8130122399048147 191 140 76 0.082210024642871166 19 2046 22 2299 37 2187 23 1959 24 1912 21 1681 29 1671 25 1521
6149 -0.25637634712009388 1.9707268304391836 4.8143363390274496 191 140 76 0.10309234182366452 19 2047 22 2300 37 2199 23 1958 24 1913 1 2751 15 2687 16 2114 13 1348 18 1333 17 1352 21 1682 29 1672 25 1522
6150 -0.21221522621556796 2.0877985417451135 4.6802461726429652 53 27 22 0.40687248472486648 39 1621 22 2305 23 1956 24 1950 13 1786 20 1620 29 1679 25 2014
6151 0.79970509740999596 1.7033501697780644 4.6514619691094126 171 127 73 0.030534985793795724 19 2063 22 2313
6152 -0.055089021825438379 1.5465336361806783 5.0471177584921953 193 181 87 0.20647467591654145 19 2066 22 2315 37 2122 23 1827 24 1560 6 2365 1 2293 5 2667 7 2224 14 1523 11 1603 15 977 16 1050 13 757 3 2749 18 701 20 678 17 608 21 727 29 943 25 1056 12 2806
6153 -0.42316810179531411 1.4457609858971541 5.4375035053192242 14 39 41 0.57142901285038217 19 2069 22 2318 37 2126 16 1871 13 1738 29 1681
6155 -0.91340310340140329 1.5712800283458017 5.5676761945040099 14 39 31 0.18945363798575129 26 2247 22 2333 23 1927 24 1943 1 1960 14 3684 11 2740 16 1374 13 1287 20 858 17 824 21 891 29 1707 25 1637
6156 3.108037866523762 1.4122739701401499 4.9337053035777396 93 103 114 0.077964435969385237 19 2083 22 2344 37 2241 23 2316
6158 3.7617347629713551 1.34236548597701 4.9325846841454393 44 56 70 2.0900105169581535 19 195 22 2363 37 2323 37 2328
6160 3.0425329453446657 1.4301240908497168 5.0408934153343301 83 93 111 0.14123520060157058 19 2076 22 2373 37 2210 23 2374
6161 3.3195680777637078 1.472819046181832 4.9265879806995132 64 76 94 0.11138341476056213 19 1999 22 2395 37 1608
6162 -0.55549110872941931 0.43291866542869534 6.3902586790655844 85 106 116 0.67310501410822532 39 2138 23 1278 24 278
6163 -0.81484189472191748 3.2373743706635842 3.4455955397062454 44 34 49 0.25242339518310075 19 2157 22 2410 17 1845
6165 -1.0216447798869817 2.7449492996386833 4.2088548019665994 185 89 42 0.33489988328968667 19 2176 22 2433 17 2182 20 2583
6166 -1.6713237659789986 -1.5889247716744548 9.2399552672491083 116 119 122 1.5244870754215194 37 2758 27 344 31 447 41 284 28 322
6167 2.6035506024792063 2.076780182341635 3.8935223948454398 127 117 111 1.412421491955806 40 2572 23 2509 40 1862
6169 0.47199402644221211 1.2926725050983143 5.387971530297321 69 65 66 0.075738991227991395 19 2198 22 2468 37 2265
6170 -2.2906786489618685 2.5716816046143558 4.5507963341832873 187 132 129 1.5852546719838116 42 2505 22 2475 23 1617
6171 -2.5410660754728314 2.4364897306883186 4.7211411888119992 155 126 97 0.21029810788205736 19 2174 22 2483
6172 -0.57081228071777379 2.873323256247732 3.7357947624471799 70 62 58 0.20820454497617913 19 2306 22 2491 37 2445 23 1579 24 1651 1 2262 15 2966 16 2247 13 1550 18 1256 20 1128 17 1115 21 984 29 1067 25 1104
6173 -1.021733716733163 2.7454207954743821 4.2106328922185865 185 89 42 0.22343686639116661 19 2175 22 2494 24 2641 17 2394
6174 -2.8036681967072283 2.1958049483653235 5.0364557623463764 29 121 158 0.54203002957314439 19 2291 22 2499 37 2451
6175 -2.5617501612955991 2.5897399143208526 4.5124823503164189 102 88 82 0.1127669563674036 42 2496 22 2500 37 2365
6176 -2.5309523413612802 2.6171341663056094 4.5130038638604706 91 76 69 1.6714863309190418 19 2238 22 2508 23 1639 32 3032 1 2565
6178 -0.78337039765123551 2.7015658475006101 4.2089154499920056 147 54 25 1.9786047124500872 19 2290 22 2514 37 2403 23 2068 24 2191 24 2733 16 3634 13 1674 13 2652 18 2210 20 2894 17 1913 21 1872 21 2313 25 1738 25 2197
6179 -2.1117661606568303 2.7036677572822101 4.3919859902784415 83 64 60 0.21216100933889651 19 2184 22 2518 23 1405
6180 -2.5886991214891624 2.5252848085377932 4.5395640451049832 82 63 53 0.51414397015527247 19 2250 22 2525 23 2091
6181 -2.7615127048764911 1.971498495349151 5.1518942413216102 137 169 176 0.15224394436678063 42 2904 22 2528 1 2641 16 3480
6182 -2.2301761258857002 2.0937951171573026 4.9928155055882142 215 192 174 0.93803653607389126 19 2570 22 2534 37 2696 23 1564 24 1152 1 1113 10 3358 9 3146 2 2776 5 1961 7 2012 14 1361 11 1373 15 1275 13 686 12 1574
6183 -2.9010126830191183 1.8980299848865436 5.2876499478014996 22 103 130 0.60446192189423553 38 1871 39 2548 22 2536
6184 -2.4737204839571985 2.0084551172072715 5.1097485788354406 224 173 126 0.87549447583864393 39 1703 22 2537 23 2049 24 1740 1 1918 14 2797 15 2648
6185 -2.6321839242683218 1.9592007845444281 5.1841585542030391 223 153 112 0.15680996975201902 19 2576 22 2539 37 2695
6186 1.4444267495138043 3.0775633184827078 3.7601992706403191 62 88 101 0.046205389464640201 19 2284 22 2540 37 2483
6187 0.82052857728813111 2.8138784706858924 3.9520019743620018 2 27 51 1.4690889262560081 22 2550 37 1886 24 2338 20 3172 25 1894 39 1441
6190 -3.0742238377828763 3.0605376332771534 3.9685850346567064 115 100 81 0.32013728216328191 19 2617 22 2585 37 2537
6191 -1.3437929670986108 3.4778135396596865 3.3990030361603432 18 119 134 0.27693444734493944 19 2352 22 2595 37 2556 20 2249 17 2287 21 2320 29 1864
6192 -3.0862975815165599 3.0222223682960188 4.1531398455828903 186 82 90 0.99993007687344593 39 2261 22 2598 37 2549
6193 0.84488205398652882 4.0263447578685279 2.6999358090356305 63 80 95 0.29151148114944175 19 2378 22 2605 37 1995
6194 -0.87343585138870183 2.8478330604069719 4.0625159835901883 112 43 23 0.94901212492352127 19 2309 22 2611 23 1530 15 3782 21 1017 20 876 25 1069
6195 -1.5462351477029868 3.5218886435432784 3.3697903428426081 9 47 71 1.516894980800048 19 2334 22 2632 21 1881
6196 -2.7237238755038904 2.8399356383822658 4.2339966015175161 209 152 160 0.45493520478372718 39 2236 22 2638 37 2390
6197 -2.3903505422429157 2.9149145719823792 4.1286412177352512 37 66 78 0.28648476214335655 26 1348 6 1178 37 984
6198 -0.87924349087025744 3.2724324888536378 3.4317840479471564 121 114 132 0.16712565743107186 19 2253 22 2642 21 2323 29 2585 25 2086
6200 -0.81660578671731898 3.2370537226435019 3.4439048947439952 44 34 49 0.65678751118620227 19 2259 22 2651 18 1921 20 3120 17 1917 21 1322 29 1264 25 1710
6202 -2.050803283911014 2.8723572644849988 4.2363437311537133 3 40 57 0.84699222800242513 19 2161 22 2659 37 2771
6203 -3.0454499857796269 2.8810122711844115 4.1783922690949371 173 52 71 0.16386041996684361 19 1648 22 2661 37 1854
6205 -1.5604276424842478 3.3317148861018406 3.6153183691597865 3 45 65 0.52700175364185142 19 2428 22 2665 17 2907 21 2966 29 3045
6206 -1.6435909903948021 3.3024712317197831 3.6583329892487111 16 37 42 0.26878295754003245 19 2381 22 2666 37 2529 20 2285
6209 -2.6011398370897325 1.91890877865314 5.2159643704749303 220 152 88 1.0498297758563262 19 2536 22 2674 37 1900 1 2174 11 3540 15 1978 16 2009 13 1269
6210 -0.45276541918421637 1.7363108661417965 5.1808481370073958 96 145 127 1.0717753734786741 19 2446 22 2689 37 2568 23 2243 14 2269 7 2831 16 1200 3 2745 17 547 29 1532 23 2755
6211 -1.3536481215704537 1.4208807519961242 5.7737447951885033 46 21 10 0.18148320048409661 19 2504 22 2695 23 2653
6212 -2.370066479716558 1.092227803189965 6.0801981362120605 56 51 56 0.25689153107477158 19 2070 22 2706 14 3019
6213 -2.5527349417717962 1.0083805147876681 6.3942711770939251 186 159 99 0.94738731231752249 32 2249 22 2707
6214 -0.27328521544867446 1.9106970491543267 4.8743554678354473 47 32 25 0.25244492007224095 19 2473 22 2713 13 2359
6215 -0.25658902018734364 1.9706711964901813 4.8141246430428577 191 140 76 0.10659167755798987 19 2465 22 2715 37 2592 23 2247 24 2329 15 2630 16 1807 20 1637 17 1737 21 1375 29 1662 25 1280
6218 -0.053377928180586467 1.5461769868846968 5.0471457812183695 193 181 87 0.27536118568520324 19 2067 22 2744 37 2619 29 976 12 2519
6219 1.841035560882218 2.0734479225571185 3.9671541475506649 46 58 64 0.40125531318160679 32 960 22 2753 37 2335
6220 -2.4055680802325443 0.70792401368859992 6.4071465884209848 203 165 127 0.42896564228172562 26 2292 22 2760 37 2628 6 2414
6221 -2.6897934210519927 0.91303993545785855 6.2169238747748787 116 87 77 1.5957314004826155 19 1960 22 2780 37 2054 37 2648 14 3171 11 3101 3 2889 12 3280 12 3285
6223 -0.44091609928318187 1.4483164260676058 5.4514583110510442 14 39 41 1.9782472957845927 19 2493 22 2787 37 2659 23 2119 24 2314 1 2099 15 2120 16 2094 13 1835 13 1257 18 600 20 963 16 2739 17 534 21 980 29 1227 29 1639 25 1285
6225 -2.1723590634557639 1.7509466468323325 5.3986414365825803 55 56 64 0.26800638865219872 19 2591 22 2793 37 2685 23 2021 24 1625 1 1927 7 2472 14 2242 11 3052 15 1861 16 1048 13 1232
6226 -2.2789026934612577 1.7214066052509938 5.4286968624277776 227 181 139 0.22294246349366328 19 2592 22 2794 23 1169 24 1043 15 2503 16 1838
6227 -1.8724322540402898 1.8290137830286719 4.9529247456664489 189 191 182 0.3277956540316207 19 230 22 2795
6228 -2.2440523568806063 1.7139383856034995 5.4337883057419312 96 52 55 0.32488962961376178 19 2596 22 2796 37 2739 23 2023 24 1622 1 1678 15 2506 13 1753
6229 -1.9889489274030434 1.7442728385544504 5.4231413290467829 31 57 89 0.7885940579299997 19 2598 22 2804 37 2743 23 2038 24 1680 8 2544 10 2508 9 2406 4 3039 5 2922 13 759 25 1129
6231 1.5405711972649125 2.7264894245016285 3.5799187669000139 177 189 189 0.1203692675301145 19 2529 22 2806 37 2750
6232 -2.3202549020287244 1.6179902715167593 5.5222950140828759 163 175 192 0.35669113913157663 19 2460 22 2811 37 2747 41 2811 23 1687 16 2656
6233 -2.0904854500181829 1.6667846621409248 5.4868255653172104 17 101 150 0.3276547829800287 19 2458 22 2813 23 2007 24 1679
6234 -2.8059625511573789 1.6595539939928785 5.5444879928734743 119 55 32 0.11005780381342649 39 2610 22 2816 37 2662
6235 -2.3414750614571034 1.8017840862632588 5.3719741789029003 138 153 168 0.32342322458516287 26 2714 22 2828 37 2673 23 1968 12 2960
6237 -2.4039124882566547 1.7562472604941004 5.4337453801811053 157 172 188 1.5664107123709563 19 2582 22 2831 37 2677 22 2031 23 1198 23 1973 24 1642 1 2195 15 1948 13 1223 12 3697
6239 -2.3941293128628143 1.4990904206246851 5.6332506350553917 154 170 176 0.20386415357262261 26 2248 22 2842 1 2184 14 2784
6241 -0.21032231764681866 2.0860729496440023 4.6773291459846069 53 27 22 0.78594886469871328 39 1629 22 2859 23 1961 24 2266 1 2261 15 3466 16 1416 13 1472 18 793 20 1289 17 1227 21 1264 29 1649 25 2393
6242 0.81758933582854321 2.3772246755913709 3.943380839759516 0 26 82 2.2111119225583047 42 2833 6 2886 22 2861 20 1578 17 1264
6244 -2.4376558372751469 1.4474754575228583 5.6529641063815905 90 113 132 0.16897307084627766 19 2431 22 2870 37 2585
6245 -0.8991058404904112 1.8925228698681404 5.1786752117952348 143 45 40 1.2388158328722119 23 2022 1 2901 4 2365 25 1315
6247 -2.7976264592485887 2.0852883835244391 5.0273879771704815 93 171 196 1.8582528980335344 19 2556 26 2866 22 2905 1 2648
6248 -2.8705989396972726 2.4536906245070567 4.6631672346818656 20 57 77 1.1432653766987941 26 1656 42 1830 19 1363 22 731 32 604 40 1200 30 581 31 1140 38 711 35 651 34 517 36 285 26 320 42 297 33 1170 39 247 19 273 22 146 37 144 37 680 37 1426 27 1044 28 1376 6 332 6 1133 1 583 2 1628 4 1858 5 1227 7 1291 12 1046
6249 -1.9641072410968692 1.0669987810639967 6.1671990808107529 96 140 152 1.8818231823592302 32 357 40 588 31 2913 38 310 35 284 34 225 36 192 26 219 42 190 33 817 39 189 19 186 22 99 42 358 39 278 22 2779 19 2501 37 101 23 2138 27 719 12 1531
6251 0.40984513822180652 2.2531162641035065 4.1991172280130025 82 107 121 1.3790376715657615 39 179 42 198 19 178 22 238 32 804 40 899 30 639 31 812 38 952 35 1081 34 615 26 74 42 86 33 719 37 265 27 829 41 898 28 427 23 288 24 126 1 358 8 2414 2 1962 5 2206 7 2074 15 1626 25 118 12 1156
6252 -0.3784879920064147 2.4109623906759716 4.4528586376430193 140 53 25 2.0161014868004372 39 1700 19 1589 22 1916 32 2210 26 1759 19 1587 37 1341 5 3002 11 3573 15 2566 23 1455 16 1512 21 1715 21 2430 25 3106
6253 3.3340287539613853 1.3080987032398215 4.9485360972964969 99 118 130 1.3736140900287601 39 2156 19 570 22 526 39 241 37 603 42 172
6254 -2.1942882381718318 3.2947605498282631 3.683709420954616 16 34 48 0.76544778534068381 32 1366 40 1033 31 1036 38 939 34 950 36 1309 39 430 19 446 22 559 32 2668 31 2652 30 993 26 1628 42 2144 33 908 42 2537 37 531 41 1010 41 2790 10 2365 9 2034
6255 -2.4688553162638467 0.75871290058073348 6.3406759600854254 148 122 85 0.85355703264493121 39 1488 19 1556 22 578 30 1896 35 1655 34 1861 39 720 10 2582 9 3245 4 2136 5 1978 7 2241 14 1701 11 2552
6256 0.44554556563147124 2.7781645574809297 3.8246173730376176 53 76 93 1.9059315315016907 32 3050 40 1883 30 2986 31 2055 38 1941 35 1857 34 2950 36 2870 33 1339 22 655 32 3042 40 2530 30 2983 31 3097 38 3026 38 3030 35 2947 26 2826 42 2507 33 1923 37 930 27 1777 27 2230 31 2049 41 2077 10 1834 10 3445 9 1702 2 2534 2 2537 4 2055 14 3679
6258 -1.8741421569851227 1.0922780042976841 6.0898882198329254 118 153 162 1.6486358305975797 36 1651 26 1833 19 1187 22 1310 32 1980 30 1499 34 3042 26 2208 36 2195 42 2724 39 2233 19 1511 22 2184 37 1371 37 2051 23 739
6259 -1.4484395389903624 3.3539268417922794 3.5953525319247031 12 52 69 1.3448746802468095 26 2353 39 1730 22 1973 32 146 30 135 38 178 35 169 34 151 36 143 26 126 42 89 39 118 15 3634 16 2266 13 2251 18 3231 20 2213 17 2396 21 1678
6260 -2.8708291075279671 0.68617442924153782 6.4127460834177015 64 87 100 0.55904222974148343 26 2294 42 1618 39 1557 19 1555 22 1711 32 2259 30 2170 34 3036 36 2411 26 2264 42 1747 39 1581 37 2622 10 2565 8 2270 9 3208 2 2782 4 2210 5 2877 7 2223 14 1714 11 1646
6262 -1.3044768939052493 3.5806724378505272 3.2667309407345959 68 142 157 2.3429179167026692 42 1459 39 1428 26 2084 19 1220 22 2100 31 2573 34 2590 36 2054 26 2083 1 2753 15 3629 16 3279 13 2126 18 1576 18 1918 39 1681 21 1167 29 3091
6263 1.1539871062734717 1.8241740983064592 4.4310658776934666 23 108 114 1.4028201162313438 32 2893 36 2749 26 2687 39 2521 32 1165 40 985 30 918 31 962 38 1881 35 1934 34 1795 26 1130 42 1611 33 720 22 1238 37 1143 41 911 28 823 27 1607 23 1387 24 1369 1 699 10 537 8 509 9 702 2 527 4 642 5 525 11 818 15 301 13 317 3 980 18 335 20 606 14 784 21 761 29 670 29 850 25 989 12 1670
6264 -0.82579268631534009 0.83296793756981502 5.8011207403000657 9 25 21 2.18304542758966 26 709 39 535 19 1094 22 1704 22 2259 35 1017 32 1112 36 609 38 522
6266 -2.1901809295415764 1.6067470641090802 5.5386154078882521 39 56 75 1.5131174098670777 30 2918 26 1899 42 1625 39 952 19 2461 39 2465 22 2104 26 2686 39 2470 19 2043 37 1683 37 1830 23 1181 24 1673 1 2038 9 3154 5 2876 15 1973 11 3147 16 1171 3 3230
6267 0.053540577187095914 2.7012724564685726 3.7369081905087991 78 103 119 2.3300961015891208 40 2855 31 2142 36 907 32 2114 34 1858 26 979 42 1065 39 982 19 1693 22 2071 32 1067 40 1071 30 1023 31 1014 38 932 35 936 34 931 42 692 10 1123 8 2344
6268 1.0010789570210015 -0.50059883296668795 7.6553947279892229 52 74 92 1.166752009843536 42 359 19 266 22 1620 32 1928 40 2358 30 2373 31 1759 33 2747 41 1811 28 1712
6269 -2.3010944957507538 0.98792314581002472 6.1996811435912118 86 115 114 0.3350279134875252 39 1290 19 1196 22 1481 32 2365 40 2786 37 1663
6270 0.7230333563327942 1.0261365187689373 5.7894141119702747 73 80 80 1.1264671278542102 42 1748 39 1592 19 1612 22 1430 30 1977 31 1083 34 1883 36 1895 42 1654 33 2750 19 1613 9 710 2 529 4 855 5 532 7 545 14 548
6272 -0.89898210351341079 2.7852765663083634 4.1509325041652705 155 61 18 2.207363311365913 32 2231 31 2193 36 2109 19 1672 22 1374 32 1759 30 2262 31 2194 35 2802 34 2189 33 2785 27 1891 23 754 23 1912 24 778 24 2005 6 2256 1 1476 7 3150 14 2736 13 2051 18 1722 20 943 20 957 20 2252 17 1049 17 2406 21 620 21 1004 21 2255 29 536 29 1172 29 2616 25 649 25 1068 25 2224
6273 -2.1858305104982598 1.6013554581507856 5.5406134313784623 55 55 82 1.320289939565706 39 2086 42 1708 19 2052 22 1895 26 2161 39 2083 19 2468 37 1682 37 1758 23 1454 24 1487 1 1914 16 946 11 2724
6277 0.98068899676023336 3.0677327672488315 3.7490253705845555 44 70 85 1.6934605304343748 32 472 34 403 30 434 36 517 26 615 26 1859 42 343 42 2531 22 326 19 411 35 815 26 2499 39 1479 19 1343 37 341 27 1300 28 398 33 1361 23 359 23 1170 24 749 6 799
6279 0.398978501080268 2.9557143533870951 3.6709756295686913 46 71 90 2.260019560058383 42 90 39 159 19 126 22 339 32 2148 40 817 30 992 31 1357 38 1046 35 900 34 882 36 928 26 1853 42 702 42 2015 33 859 39 788 39 2302 36 2057 40 994 30 986 38 983 37 244 37 2417 27 1203 27 1211 41 889 41 2602 28 1217 8 1534 19 786 9 1478 2 1420 4 2093 5 2115 7 2044 14 3646 11 3360
6282 -2.0507328468119366 3.2697159506316091 3.6804812059561556 18 58 68 2.8516921927971199 34 2973 36 1993 26 2428 42 1891 39 1723 19 1841 19 1847 26 2433 42 1563 22 2616 36 2617 42 1529 17 1222
6283 1.0626974176157453 -0.31255342789266882 7.4235293708568939 87 107 120 1.4289751648374971 40 219 30 333 32 572 19 1068 22 1074 22 1082 40 201 30 390 31 1974 37 808 37 871 34 1903
6284 -0.71019019910472747 0.56626310120305279 5.9736623775663116 91 106 98 1.1582161642208706 40 662 19 1085 22 893 26 2343 26 1462 42 1631 39 1078 42 1549 37 821 24 412
6286 -0.06716750225149308 3.7348885357834458 2.7401601156877731 104 116 132 0.7764536042353033 22 1008 23 915 24 532 6 2234 20 798
6288 -0.29410363942859941 -1.3812848782610203 9.1829212341242616 103 100 97 1.4210251296054037 39 2203 42 1518 37 1204
6289 1.3787945219391293 2.8058121587930573 3.611697187356369 142 149 153 1.1181117612186093 26 2833 39 2527 22 2830 37 1909 25 2647
6290 -1.307546848043621 1.7771372152903098 5.0036322380263689 17 60 47 0.66662361445283547 39 949 22 2874
6291 2.8522963944801365 2.3043664981883429 4.5968912752780664 27 16 9 2.3517092350574247 32 36 37 10
6293 -1.2556725744335986 2.7227003125456188 4.2221871306995942 110 43 13 2.1582794816079711 19 25 26 969 37 37
6294 1.1603830146081728 2.0072194410215642 4.1681162130369405 29 63 83 1.7109434306570008 22 36 37 60 23 54 24 28 6 70
6296 -0.80611838259409596 3.3702531066536623 3.2678904841535865 104 46 28 0.89813606288332903 10 409 8 357 9 348 2 442 4 630 7 810 5 1766 4 1782 14 1458 11 1547 15 1044 16 981 13 657 3 1262 18 665
6297 1.6293132426149837 2.9910338670980949 3.1690225136137045 150 143 137 1.0359381838265724 19 889 22 98 37 96
6299 -1.8802661854375231 0.9829343170392113 5.6535920859911775 29 30 25 0.59742000584352628 19 87 22 87 37 126
6300 -2.7765234808194403 3.2880813704755498 3.6394851463628632 110 43 62 0.72476332247480557 19 154 37 129
6301 1.2928611677018622 3.513716966725172 3.0285915434319044 0 0 0 0.42571641672179517 19 264 22 145
6302 -2.0252972961596454 2.3033133679513123 4.2204761472040673 100 119 75 1.3561443999974299 22 336 37 149
6304 0.94719538050258789 -0.57687623909150942 7.7034475476414563 64 84 98 0.11902482802189789 22 250 37 203
6305 0.1319387390193994 -0.20166318098352956 7.006905757976436 0 0 0 0.15463340604972242 26 232 39 253
6306 0.53159993060296951 1.4519746144142613 5.0742888819193039 29 62 77 0.076975137450428874 22 173 37 215
6307 0.87160189066926352 2.3824858102878066 4.2347468532572403 0 32 87 0.40383772249285971 22 216 37 224 23 209
6308 1.0625071277164659 3.3531983829188574 2.9180796391637616 73 87 102 0.88995474685218368 19 112 37 249
6309 1.0560767046066535 2.5127849416015318 3.6972978494542934 9 39 74 1.2783717374441124 36 327 38 181 37 267 39 381 12 2450
6310 -1.5074288259967674 1.7440203265242598 5.6013823533497495 229 231 219 0.25541650598801757 22 320 37 268
6311 1.9020764750495747 1.981004673474295 4.454598281031557 35 53 66 1.7271100513717594 22 140 37 276 6 241 20 377
6312 0.41879321409864173 0.15022156429393849 7.1351552743865403 73 95 108 0.18869751166118096 22 246 37 285
6313 -0.84913502719728329 2.901380962282087 3.8268387213330382 33 30 30 1.8146180845810698 26 373 37 328 23 481 24 302 6 761 1 405 20 147
6315 -0.92528369521347209 1.0063285581719388 5.5530165622044736 13 19 19 1.9601589925081915 19 147 37 349 23 55 24 336
6317 2.8331188504056475 1.5082473513708363 4.1166358814483424 49 68 81 0.037141674123645038 26 329 37 361
6321 -2.4265302139938405 2.5632995819388884 4.4961474660045511 50 89 101 0.34722673172051949 42 506 37 401 14 1606 15 694 16 747
6322 -0.69356980172928173 3.5407456935622785 3.0278625548700844 0 139 163 1.0892000403904873 22 494 37 407 24 235 1 864 8 1898 14 3544 11 2069 15 2888 18 656 3 2138
6323 2.8331188504056475 1.5082473513708363 4.1166358814483424 49 68 81 0.037141674123645038 26 393 37 412
6324 0.87071836074831344 2.5097512186175068 4.0717885263593017 0 30 76 0.60806182347979654 39 585 37 429 23 417 24 220
6325 -1.1772251803292026 3.6379145986236843 3.1096046293855593 59 37 74 1.0082217141904515 26 448 37 456 9 2335
6326 -0.10928922889553951 3.7501774888741846 2.8141841079629435 86 106 121 0.69188744705567751 22 630 37 526 23 495 6 1509 20 757 17 697 18 653 21 392 13 762
6327 -3.0332302210796422 2.0668316336525532 5.0954905305712774 149 166 153 0.51899741374956054 40 2216 37 538
6328 -2.5861591517705627 2.616383746977291 4.4709644809581546 39 44 50 1.0661310240731756 38 2815 37 546 3 1349
6329 -1.9823622996147023 3.4598872017694338 3.4789825243413217 10 141 158 0.48864757297692546 31 2256 37 555 6 1858
6330 -2.4629781980309686 2.0702446094225722 5.0625455464499121 198 159 97 0.97589306705218659 22 978 37 567
6331 1.3441904211105562 2.0681579605603688 4.0655623363777842 199 202 203 0.24062955887079554 19 525 22 589 37 586
6332 1.4320708537294198 2.0538868329987912 4.2124958600191889 199 202 203 2.0979247368992162 19 540 22 768 37 633 14 139 7 153 5 153 11 169 15 125
6333 -1.3565642319495299 2.3307442495073754 3.9340052650312805 74 84 43 1.4475186157483719 19 2564 32 607 37 668
6334 -3.0506058346850113 3.210274151677857 3.8678354758518356 189 183 176 0.50423329639854408 42 1277 37 726
6336 3.6382545629863983 1.1370967118812947 4.984331194192162 99 110 122 1.7926708474393003 22 521 37 813 6 568
6337 -1.3965953211254545 0.41743495583730883 6.1017862088609665 56 68 70 1.3792526727111101 22 894 37 822 23 1360
6338 1.859328140379402 1.4786123497871588 5.1497749885648716 39 65 83 1.1916242586596284 19 583 22 566 42 1584 37 829 42 1079 23 644 24 382 25 334
6339 -0.71332695563659909 2.0875844299248913 4.9281800513927188 35 24 17 0.0775571404883664 22 916 37 844
6340 -2.5684472225027921 2.1167259903129598 4.9849139581253619 184 116 83 0.54626624511554989 19 718 37 857 6 1157 1 597 10 1276 12 927
6341 -2.5654650367544436 2.1182388524355704 4.9794102097431878 184 116 83 0.33150733762211038 19 895 37 943 6 1423 15 707 23 485 16 772
6343 -0.12605264704830701 3.8693158984813127 2.7765415254115529 74 100 115 0.13842740977014453 22 1097 37 950 6 2638
6344 -0.048043781054861526 3.6042034402489236 2.8227773375356229 75 95 117 0.40842474424453573 22 1041 37 977 23 939 24 706 6 2721 25 1157
6345 0.43080575730508952 3.6915912349852542 3.2468568513914304 69 94 110 0.14107932291455805 22 1992 37 980
6347 -0.0275095813026522 3.8047344484466583 2.6386361520606036 69 87 107 0.5054779703199952 19 929 22 1389 37 1003 6 2130
6349 -2.7483558571458997 1.2457553263658734 5.8944540348544061 60 42 30 0.52518799040745134 22 1137 37 1055 6 2043 4 1908 5 2967 7 1958 14 627 11 1764 15 660 3 1117
6350 1.914541026197909 2.7281151995248036 3.508533493671929 22 13 18 1.8050789107133138 19 1761 22 1141 37 1067
6351 -1.3181023853966352 1.7690047787033487 5.3707355922875673 152 50 19 0.49666483858431132 26 1903 37 1070 1 1544
6354 -2.2099312369727158 2.0812173884647751 4.9870027639923249 198 180 158 0.927426696796669 22 1157 37 1094 13 685
6356 -0.62675732592667377 2.7705374315211175 4.0503640754939356 34 30 25 1.1035812235884714 19 1765 37 1102 23 1123 24 1028 6 1954 6 2999 11 1258 15 1798 16 1780
6357 0.77224559531990211 2.6650963929831439 4.1402221834471966 56 82 102 1.6508355880134509 22 1222 37 1115 23 1114 24 1253 6 2921
